ply
format ascii 1.0
element face 0
property list uchar int vertex_indices
element vertex 909
property float x
property float y
property float z
property uchar diffuse_red
property uchar diffuse_green
property uchar diffuse_blue
end_header
-2.830206e-01 -2.910710e+00 -5.034082e+00 53 66 36
2.805739e-01 -3.334966e+00 -4.984956e+00 97 97 99
-3.957962e-01 -3.002081e+00 -5.006079e+00 67 81 46
8.693463e-02 -3.330840e+00 -4.966321e+00 172 173 177
-2.881433e+00 -1.415720e+00 -5.216806e+00 229 224 231
-2.881433e+00 -1.415720e+00 -5.216806e+00 229 224 231
-5.179445e-01 -3.052197e+00 -4.983997e+00 69 76 42
-5.192573e-01 -3.053528e+00 -4.984661e+00 69 76 42
-2.045808e+00 -2.120390e+00 -5.093290e+00 223 227 242
5.036745e-01 -3.853854e+00 -4.879973e+00 83 65 55
-6.154342e-01 -3.107217e+00 -4.949957e+00 146 147 116
-6.148513e-01 -3.107133e+00 -4.943852e+00 146 147 116
5.519732e-01 -3.935094e+00 -4.841312e+00 60 48 39
-3.157504e+00 -1.559550e+00 -5.145465e+00 221 210 214
-2.952175e+00 -1.756880e+00 -5.101658e+00 144 134 142
-2.440411e-01 -3.694810e+00 -4.814886e+00 190 185 179
-2.428029e-01 -3.700052e+00 -4.822335e+00 190 185 179
-6.381664e-01 -3.460475e+00 -4.857165e+00 95 84 66
2.436674e+00 2.534960e+00 -6.796555e+00 159 131 107
5.164641e+00 2.443971e-01 -6.496311e+00 50 44 15
4.905919e+00 2.780508e-02 -6.411152e+00 113 85 64
3.288676e+00 -5.688469e-01 -6.057657e+00 69 60 24
3.290240e+00 -5.686511e-01 -6.062892e+00 69 60 24
-4.329318e-01 1.992279e+00 -6.392726e+00 217 184 130
-1.312338e+00 2.528144e+00 -6.452187e+00 180 182 179
-1.322747e+00 1.581892e+00 -6.189994e+00 218 188 118
-1.951170e+00 1.743117e+00 -6.158544e+00 168 182 182
-2.550011e+00 1.480406e+00 -6.104358e+00 210 205 162
-2.431071e+00 9.677250e-01 -5.916182e+00 235 207 144
-2.682030e+00 8.658438e-01 -5.854439e+00 247 210 215
1.964221e+00 -2.866526e+00 -5.280619e+00 65 48 33
-2.847844e+00 1.568882e-01 -5.669677e+00 169 159 164
1.621925e+00 -3.258305e+00 -5.144500e+00 51 33 22
1.905828e+00 -3.542485e+00 -5.131620e+00 62 45 35
1.905828e+00 -3.542485e+00 -5.131620e+00 62 45 35
1.330976e+00 -3.264247e+00 -5.101960e+00 47 33 20
2.285641e-01 -2.530508e+00 -5.189817e+00 90 93 97
1.475789e+00 -3.637225e+00 -5.016683e+00 92 74 62
1.168489e+00 -3.633019e+00 -4.988047e+00 154 143 139
-2.957120e+00 -8.583329e-01 -5.427352e+00 194 205 161
-4.275520e-01 -2.735644e+00 -5.069961e+00 120 130 104
1.125383e+00 -3.814075e+00 -4.938301e+00 61 56 53
2.336544e-02 -3.146788e+00 -4.998296e+00 145 156 142
1.038889e+00 -3.914166e+00 -4.899760e+00 166 161 157
-5.047572e-01 -2.947784e+00 -5.016243e+00 134 146 110
1.203533e+00 -4.127598e+00 -4.838263e+00 161 132 70
9.889443e-01 -4.005407e+00 -4.866145e+00 69 61 53
-1.934517e-01 -3.515349e+00 -4.891172e+00 194 192 193
1.091339e+00 3.115162e+00 -6.892465e+00 126 113 105
4.668640e+00 4.092031e-02 -6.352222e+00 182 158 134
4.446080e+00 -1.497707e+00 -5.925071e+00 177 153 96
-1.055809e+00 2.154639e+00 -6.356945e+00 145 134 133
-1.152392e+00 1.473119e+00 -6.133294e+00 213 183 113
-1.111072e+00 1.129053e+00 -6.046814e+00 228 196 130
-1.526617e+00 8.181413e-01 -5.983292e+00 228 198 132
-3.520749e+00 1.986553e+00 -6.103591e+00 220 154 78
-2.524719e+00 7.017735e-02 -5.654159e+00 229 205 135
-2.524719e+00 7.017735e-02 -5.654159e+00 229 205 135
1.346547e+00 -3.023104e+00 -5.193082e+00 47 33 24
7.643024e-01 -3.569477e+00 -4.998649e+00 71 56 51
-2.269214e+00 -1.845469e+00 -5.140460e+00 98 120 103
-4.061648e-01 -3.159863e+00 -4.972707e+00 147 152 120
4.242583e+00 7.139851e-01 -6.434465e+00 174 137 85
5.222887e+00 -3.575385e-02 -6.337302e+00 156 137 79
4.236839e+00 -1.530559e+00 -5.887087e+00 65 58 14
-7.746114e-01 1.557018e+00 -6.216315e+00 154 140 137
-2.322680e+00 6.380373e-03 -5.714487e+00 161 153 151
-2.506652e+00 -1.260378e+00 -5.293053e+00 149 144 150
-1.838327e+00 -1.940443e+00 -5.148737e+00 230 237 250
-1.813521e+00 2.678668e+00 -6.414619e+00 144 161 171
1.814004e+00 -2.779175e+00 -5.294909e+00 50 33 25
-2.590597e+00 -1.351955e-01 -5.604676e+00 162 152 155
-3.306043e+00 -1.751876e-01 -5.551470e+00 164 154 152
-3.729254e+00 -2.819151e-01 -5.432844e+00 148 137 131
-2.786785e+00 -9.327535e-01 -5.298300e+00 147 141 143
-3.025857e+00 5.005014e-01 -5.727670e+00 230 205 139
1.274251e+00 -3.424607e+00 -5.102423e+00 46 33 26
-3.369416e+00 -7.634513e-01 -5.361450e+00 97 122 80
-1.579226e+00 2.407670e+00 -6.500371e+00 205 212 205
1.895064e+00 -2.573620e+00 -5.391909e+00 51 36 29
1.293830e+00 -3.850520e+00 -4.949487e+00 170 161 156
4.422407e-01 1.703775e+00 -4.796424e+00 144 118 114
-2.063691e+00 -1.793281e+00 -5.176125e+00 223 223 225
-1.875383e+00 -1.739285e+00 -5.205678e+00 133 128 135
4.792406e-01 9.908468e-02 -3.888271e+00 160 121 97
4.456096e-01 1.739969e+00 -4.804010e+00 223 182 174
4.659797e-01 1.683512e+00 -4.794813e+00 215 205 199
3.451992e-01 1.453756e+00 -4.786257e+00 74 41 64
-2.579653e+00 -2.303695e+00 -4.978543e+00 155 148 152
-1.413686e+00 -3.128822e+00 -4.843794e+00 221 224 231
1.721896e+00 5.801859e-01 -4.613937e+00 222 156 121
1.497235e+00 1.513966e-01 -4.711940e+00 213 177 184
1.964569e+00 6.986799e-01 -4.656352e+00 110 72 58
1.935574e+00 6.435226e-01 -4.637036e+00 255 147 72
2.354218e+00 1.310558e+00 -6.480656e+00 136 99 70
-2.575544e-01 -2.998057e+00 -5.015875e+00 180 200 172
1.490733e-01 -3.392662e+00 -4.959336e+00 99 103 112
-2.829475e+00 2.088608e+00 -6.221812e+00 237 183 126
-2.761700e+00 3.777347e-01 -5.723207e+00 255 210 199
-2.761700e+00 3.777347e-01 -5.723207e+00 255 210 199
-2.264879e+00 -2.092512e+00 -5.068496e+00 159 150 155
-2.304164e+00 -2.361772e+00 -5.002976e+00 247 245 240
-1.872145e+00 -2.381884e+00 -5.035322e+00 166 164 169
5.563909e-01 -1.917989e-02 -3.870514e+00 108 69 69
5.563909e-01 -1.917989e-02 -3.870514e+00 108 69 69
-2.518302e+00 -3.468722e+00 -4.663873e+00 229 250 254
2.472262e+00 2.072288e+00 -6.704220e+00 163 114 82
-1.043905e+00 -2.487529e+00 -5.081393e+00 230 239 254
2.766815e+00 2.295825e+00 -6.801832e+00 124 97 70
1.811526e+00 5.466684e-01 -4.595495e+00 228 219 203
2.908953e+00 1.463013e+00 -6.582628e+00 77 45 20
2.880503e+00 9.424929e-01 -6.419524e+00 110 79 58
2.880503e+00 9.424929e-01 -6.419524e+00 110 79 58
-3.573794e-01 -3.259666e+00 -4.943849e+00 136 153 136
3.461291e+00 1.466582e+00 -6.613544e+00 180 153 131
-3.514190e-01 -3.432943e+00 -4.901696e+00 151 160 157
-4.173237e-01 -3.631773e+00 -4.842415e+00 228 234 234
-1.237884e-02 -3.558867e+00 -4.897900e+00 207 212 215
7.791556e-02 -3.495869e+00 -4.934493e+00 217 222 225
-3.886525e-01 -4.107897e+00 -4.716823e+00 237 241 216
1.828497e-01 -3.404487e+00 -4.951621e+00 196 199 208
1.828497e-01 -3.404487e+00 -4.951621e+00 196 199 208
-2.913019e+00 1.850758e+00 -6.130292e+00 133 133 131
-1.807917e+00 2.814823e+00 -6.455180e+00 162 168 168
-2.868112e+00 7.270632e-01 -5.793744e+00 210 105 91
6.234742e-02 4.027858e+00 -7.033202e+00 150 146 143
-2.467038e+00 5.309438e-01 -5.766158e+00 122 127 130
6.275778e-02 3.565583e+00 -6.895683e+00 120 121 113
5.939320e-01 1.912489e+00 -4.862265e+00 214 166 148
4.002621e-01 1.665277e+00 -4.789919e+00 210 179 180
3.896181e-01 1.615423e+00 -4.795112e+00 150 126 120
3.403650e-01 1.521655e+00 -4.793502e+00 251 221 217
-2.292724e+00 -1.418960e+00 -5.259102e+00 231 232 221
-2.223803e+00 -1.751985e+00 -5.161828e+00 119 132 112
-1.905027e+00 -1.559081e+00 -5.264444e+00 206 202 204
-2.571245e+00 -3.108925e+00 -4.773681e+00 121 144 158
-1.266161e+00 -2.300534e+00 -5.100461e+00 221 231 243
-1.431824e+00 -3.047440e+00 -4.899126e+00 251 252 253
2.400599e+00 1.672072e+00 -6.591288e+00 101 33 7
2.822546e+00 2.120711e+00 -6.737967e+00 86 55 27
2.822546e+00 2.120711e+00 -6.737967e+00 86 55 27
-8.773473e-01 -2.585938e+00 -5.058299e+00 139 145 161
-1.194401e+00 -3.339805e+00 -4.840935e+00 166 165 171
-1.248050e+00 -3.413639e+00 -4.807441e+00 166 165 175
-1.163770e+00 -3.372711e+00 -4.820144e+00 241 240 245
-1.254367e+00 -3.501627e+00 -4.811394e+00 248 246 255
-1.046628e+00 -3.381420e+00 -4.840338e+00 232 231 237
-1.309157e+00 -3.831134e+00 -4.698371e+00 244 241 248
-9.733922e-01 -3.431059e+00 -4.830271e+00 241 239 244
-6.609675e-01 -3.395279e+00 -4.897840e+00 201 213 186
-3.325891e-01 -2.974037e+00 -5.019387e+00 185 206 173
-4.054904e-01 -3.297068e+00 -4.925379e+00 101 118 100
-1.692501e-01 -3.107592e+00 -5.017730e+00 186 202 175
-9.953792e-02 -3.110251e+00 -5.011293e+00 107 123 99
-3.803731e-01 -3.607447e+00 -4.849140e+00 132 137 141
-1.780147e-01 -3.598679e+00 -4.860792e+00 150 155 159
-4.343250e-01 -3.996868e+00 -4.714563e+00 186 199 146
3.056566e+00 -1.645542e-01 -6.133539e+00 107 96 78
-3.434389e+00 1.264592e+00 -5.921954e+00 241 161 95
-3.116490e+00 9.237205e-01 -5.823898e+00 251 210 144
-3.001953e+00 7.372903e-01 -5.796021e+00 241 201 132
-2.250513e+00 1.572698e+00 -6.112395e+00 217 206 163
-1.591906e+00 2.339814e+00 -6.375436e+00 219 217 204
-2.833824e+00 3.659233e-01 -5.716290e+00 189 88 72
2.659821e-01 3.656185e+00 -6.944170e+00 121 121 113
-2.627896e+00 2.995048e-02 -5.648732e+00 182 159 143
7.712462e-01 3.421829e+00 -6.926224e+00 84 82 70
-9.879065e-01 9.135552e-01 -6.032767e+00 150 123 112
9.662953e-01 2.822921e+00 -6.759337e+00 119 101 87
5.259560e-01 1.107536e-02 -3.862914e+00 64 23 38
-1.711321e+00 -2.475094e+00 -5.038050e+00 245 246 250
2.118241e+00 2.318020e+00 -6.733722e+00 83 48 10
2.118157e+00 2.318650e+00 -6.738877e+00 83 48 10
-1.793633e+00 -2.662023e+00 -4.953102e+00 163 160 167
2.226847e+00 2.081686e+00 -6.708774e+00 154 116 79
-1.922970e+00 -3.342610e+00 -4.758775e+00 250 248 253
2.285403e+00 1.536705e+00 -6.529049e+00 101 59 21
2.671876e+00 1.970648e+00 -6.687386e+00 87 53 26
2.355317e+00 1.503183e+00 -6.532756e+00 153 110 76
2.353461e+00 1.503853e+00 -6.526002e+00 153 110 76
-1.605937e+00 -3.669255e+00 -4.701474e+00 236 233 240
2.931248e+00 2.055266e+00 -6.751214e+00 86 56 28
2.438857e+00 1.340832e+00 -6.494822e+00 123 84 55
2.734147e+00 1.464613e+00 -6.548004e+00 80 46 11
-1.166612e+00 -3.535658e+00 -4.799210e+00 234 232 243
-1.405498e+00 -3.851606e+00 -4.655475e+00 223 222 228
-1.204962e+00 -3.669907e+00 -4.738750e+00 233 231 242
2.807825e+00 1.405435e+00 -6.553889e+00 92 58 23
-1.332500e+00 -3.923557e+00 -4.646064e+00 232 229 236
-5.907361e-01 -3.032135e+00 -4.981782e+00 193 211 179
-9.058493e-01 -3.490465e+00 -4.820305e+00 241 239 244
-1.014371e+00 -3.639265e+00 -4.769453e+00 235 234 240
2.513987e+00 5.029433e-01 -6.295763e+00 166 140 122
-3.603868e-01 -3.465815e+00 -4.872942e+00 234 243 240
3.652080e-01 -2.719424e+00 -5.157422e+00 187 187 197
3.652080e-01 -2.719424e+00 -5.157422e+00 187 187 197
-3.496148e-01 -3.676115e+00 -4.820903e+00 236 241 247
3.127733e+00 6.820346e-01 -6.377341e+00 115 93 79
9.654090e-03 -3.293125e+00 -4.973660e+00 103 117 120
2.162901e-01 -3.105656e+00 -5.034574e+00 169 188 186
-6.635493e-02 -3.703496e+00 -4.826815e+00 189 210 148
3.012566e+00 2.017494e-01 -6.222428e+00 182 163 149
3.013612e+00 2.053429e-01 -6.217750e+00 182 163 149
1.699022e+00 -1.706732e+00 -5.545148e+00 107 105 109
3.270594e+00 2.209591e-01 -6.266312e+00 174 152 140
3.035509e+00 -1.079200e-01 -6.149547e+00 192 179 162
3.098622e+00 -2.636608e-02 -6.183855e+00 177 158 144
3.893034e+00 9.836450e-01 -6.537699e+00 121 122 79
3.167444e+00 3.671802e-02 -6.236151e+00 175 156 142
3.238646e+00 1.144573e-01 -6.231754e+00 192 170 157
3.364270e+00 2.486569e-01 -6.307122e+00 209 187 174
2.994024e+00 -5.023733e-01 -6.067205e+00 154 103 37
-2.219820e+00 2.886225e+00 -6.499553e+00 255 206 125
-2.607653e+00 2.408802e+00 -6.351062e+00 236 158 80
-4.129214e+00 1.830165e-01 -5.500877e+00 129 112 104
-4.353060e+00 -3.498367e-01 -5.361718e+00 143 121 107
-2.424531e+00 1.753432e+00 -6.104777e+00 199 206 198
-1.037508e+00 2.634956e+00 -6.497830e+00 207 187 176
2.034878e-01 3.938408e+00 -7.027587e+00 118 113 109
-2.121224e+00 7.618568e-01 -5.890844e+00 239 203 129
5.247947e-01 3.896641e+00 -7.034006e+00 175 175 167
-2.304596e+00 3.866773e-01 -5.770948e+00 237 204 135
1.248911e-01 3.360981e+00 -6.848152e+00 128 128 120
-3.396186e+00 -1.592985e+00 -5.122573e+00 231 212 205
-1.005343e+00 1.274566e+00 -6.125787e+00 218 174 98
-2.011256e+00 -1.857450e+00 -5.156668e+00 238 236 241
-2.526301e+00 -2.540558e+00 -4.938673e+00 237 237 230
-2.544926e+00 -3.410792e+00 -4.680568e+00 225 248 255
-2.447895e+00 -3.453109e+00 -4.668964e+00 129 146 168
-2.369592e+00 -3.372097e+00 -4.714145e+00 238 241 193
-2.118207e+00 -3.239943e+00 -4.759208e+00 165 164 165
-1.913214e+00 -3.563175e+00 -4.660786e+00 209 228 178
-1.177143e+00 -3.230237e+00 -4.856822e+00 247 248 253
2.624378e+00 1.376551e+00 -6.523070e+00 103 60 21
-8.423399e-01 -3.043911e+00 -4.948900e+00 233 228 235
-1.172937e+00 -3.596007e+00 -4.764756e+00 158 156 167
-5.186656e-01 -3.046133e+00 -4.979065e+00 101 117 85
-1.120418e+00 -4.071698e+00 -4.637735e+00 141 140 146
1.161210e+00 -1.239097e+00 -5.654595e+00 77 71 73
2.616905e+00 6.086560e-01 -6.286905e+00 165 138 121
3.741026e-01 -2.429601e+00 -5.299645e+00 177 181 192
3.502850e+00 1.532531e+00 -6.645087e+00 172 146 121
-7.251954e-01 -3.895265e+00 -4.715480e+00 248 248 250
-1.912319e-01 -3.339296e+00 -4.942163e+00 233 246 252
-1.900386e-01 -3.342949e+00 -4.947999e+00 233 246 252
2.865695e+00 5.098121e-01 -6.316373e+00 109 83 68
-7.454858e-01 -4.157988e+00 -4.648500e+00 243 242 248
-4.015949e-01 -3.764594e+00 -4.774042e+00 158 167 168
-4.093399e-01 -3.770655e+00 -4.788117e+00 158 167 168
2.726637e+00 6.913854e-02 -6.173982e+00 155 139 126
-1.610892e-01 -3.644237e+00 -4.833263e+00 232 237 241
2.997095e+00 3.685493e-01 -6.282413e+00 185 163 149
8.249876e-02 -3.386100e+00 -4.952968e+00 211 220 227
1.633931e+00 -1.419908e+00 -5.636078e+00 161 157 158
1.633931e+00 -1.419908e+00 -5.636078e+00 161 157 158
2.802432e+00 5.428803e-02 -6.186582e+00 95 79 64
-5.873785e-01 -4.295739e+00 -4.619367e+00 245 245 247
-4.534565e-01 -4.168805e+00 -4.668400e+00 225 226 221
3.013563e-01 -3.234320e+00 -5.019294e+00 115 124 133
2.372599e+00 -1.108216e+00 -5.816039e+00 163 158 155
3.372504e+00 1.833567e-01 -6.249669e+00 113 91 78
6.011407e-01 -3.391566e+00 -4.996878e+00 116 116 118
-3.419638e+00 1.090794e+00 -5.812722e+00 135 137 136
-1.967288e+00 2.863866e+00 -6.480031e+00 179 183 182
-3.254231e+00 1.140559e+00 -5.851378e+00 236 201 135
-2.800259e+00 1.548948e+00 -6.018829e+00 152 159 152
-3.972006e+00 -1.313651e+00 -5.133821e+00 147 120 103
2.043723e-01 3.755908e+00 -6.975305e+00 186 183 178
-9.506979e-01 2.130395e+00 -6.392305e+00 155 133 120
-3.173811e+00 -1.822543e+00 -5.073229e+00 160 145 139
-9.225033e-01 8.767916e-01 -6.028945e+00 235 208 197
-2.796659e+00 -3.132455e+00 -4.718493e+00 93 125 150
-2.797910e+00 -3.132995e+00 -4.720542e+00 93 125 150
-2.303426e+00 -2.981232e+00 -4.839721e+00 246 239 245
-2.303426e+00 -2.981232e+00 -4.839721e+00 246 239 245
-2.470851e+00 -3.337217e+00 -4.713648e+00 130 158 179
-1.711338e+00 -2.631110e+00 -4.979596e+00 231 226 233
-1.538091e+00 -2.763724e+00 -4.963700e+00 231 230 236
-1.958372e+00 -3.400049e+00 -4.716031e+00 152 150 151
2.807364e+00 2.203098e+00 -6.771202e+00 138 112 81
2.524263e+00 1.361385e+00 -6.488647e+00 92 41 13
-1.356588e+00 -3.879526e+00 -4.661819e+00 246 245 251
-2.587955e-01 -2.654963e+00 -5.108996e+00 166 197 156
-8.371993e-01 -3.529675e+00 -4.834147e+00 153 151 154
-2.824536e-01 -2.911133e+00 -5.034324e+00 96 120 84
9.035939e-01 -1.466506e+00 -5.561354e+00 140 135 142
9.661076e-01 -1.396685e+00 -5.619499e+00 77 72 76
-7.192520e-01 -3.732613e+00 -4.784468e+00 130 135 129
-7.520778e-01 -4.047660e+00 -4.672356e+00 149 148 154
-7.520778e-01 -4.047660e+00 -4.672356e+00 149 148 154
8.770817e-02 -3.324481e+00 -4.963823e+00 205 218 227
2.674738e+00 -8.355073e-02 -6.108941e+00 99 89 80
2.674738e+00 -8.355073e-02 -6.108941e+00 99 89 80
1.767427e+00 -1.635001e+00 -5.601465e+00 159 153 153
1.767982e+00 -1.635120e+00 -5.603321e+00 159 153 153
5.378026e-01 -3.226720e+00 -5.055066e+00 127 128 133
2.197809e+00 -1.157432e+00 -5.783237e+00 104 100 101
6.023060e-01 -3.309876e+00 -5.015047e+00 16 15 20
3.238091e+00 -8.027050e-04 -6.189237e+00 104 85 71
3.244099e+00 -3.464016e-03 -6.208981e+00 104 85 71
3.433420e+00 2.342362e-01 -6.268977e+00 116 94 80
2.021455e+00 -1.623233e+00 -5.677407e+00 71 61 60
1.903436e+00 -1.833771e+00 -5.567458e+00 194 185 180
-4.534771e+00 -5.023685e-01 -5.296318e+00 206 178 154
-1.601486e+00 1.966958e+00 -6.285105e+00 202 204 191
1.088388e+00 3.300316e+00 -6.957444e+00 113 99 90
-3.076417e+00 -2.224470e+00 -4.957473e+00 144 127 128
1.390414e+00 2.667508e+00 -6.761482e+00 107 73 48
-3.007202e+00 -2.957232e+00 -4.758919e+00 168 158 159
-2.230452e+00 -2.745122e+00 -4.880357e+00 242 246 244
-1.408554e+00 -2.952333e+00 -4.917579e+00 243 244 249
2.249364e+00 1.288933e+00 -6.469712e+00 100 61 30
2.569959e+00 1.474738e+00 -6.545094e+00 163 114 82
-1.076979e+00 -3.253923e+00 -4.872368e+00 173 172 178
-7.466361e-01 -3.112604e+00 -4.945103e+00 151 146 152
-5.040228e-01 -2.947819e+00 -5.017852e+00 179 208 163
-1.106188e-01 -2.988245e+00 -5.037185e+00 159 175 148
2.520240e-02 -2.930732e+00 -5.072064e+00 167 187 163
1.640445e-01 -3.063424e+00 -5.045855e+00 177 196 182
7.180222e-01 -2.371319e+00 -5.319330e+00 74 77 86
2.471111e-01 -2.994482e+00 -5.087265e+00 123 131 134
1.872834e+00 -1.020889e+00 -5.753859e+00 99 95 96
6.431787e-01 -2.967795e+00 -5.118783e+00 82 82 92
2.536329e+00 -7.619153e-01 -5.916637e+00 133 147 120
-3.232282e+00 1.644031e+00 -6.007896e+00 234 161 81
-2.245491e+00 2.413125e+00 -6.309441e+00 190 195 191
-1.383153e+00 3.044288e+00 -6.621771e+00 185 183 168
-8.608265e-01 2.987484e+00 -6.612041e+00 147 129 119
-8.189364e-01 1.170042e+00 -6.127660e+00 158 135 117
1.286339e+00 3.295263e+00 -6.972000e+00 116 97 83
-2.684894e+00 -2.862607e+00 -4.787496e+00 155 144 142
-2.241591e+00 -3.127914e+00 -4.803190e+00 171 166 167
2.229266e+00 1.439452e+00 -6.486712e+00 160 115 75
-9.293930e-01 -2.950205e+00 -4.975612e+00 151 150 156
-9.867808e-01 -3.092530e+00 -4.914224e+00 153 150 157
2.599452e+00 1.248757e+00 -6.476803e+00 163 116 72
-8.181399e-01 -3.208790e+00 -4.911013e+00 163 158 164
-8.913370e-01 -3.369649e+00 -4.862283e+00 146 144 149
-7.261670e-01 -3.377011e+00 -4.883446e+00 199 209 174
-2.689549e-01 -3.064897e+00 -5.001664e+00 180 199 167
-7.542468e-01 -3.771046e+00 -4.781055e+00 142 144 142
-4.913342e-01 -3.536296e+00 -4.837616e+00 142 152 143
1.410026e+00 -1.430911e+00 -5.601889e+00 99 97 100
-5.584854e-01 -4.125389e+00 -4.682286e+00 159 159 157
-4.100536e-02 -3.558853e+00 -4.883295e+00 204 212 214
-1.108412e+00 1.153704e+00 -6.073425e+00 239 196 123
-8.503345e-01 1.356716e+00 -6.151132e+00 224 180 112
-8.559441e-01 1.363297e+00 -6.149206e+00 224 180 112
3.007863e+00 1.824216e+00 -6.717514e+00 70 40 12
1.880560e-01 -3.502398e+00 -4.924616e+00 131 134 139
-3.959070e+00 -6.470406e-01 -5.303630e+00 162 136 119
-1.024667e+00 1.619524e+00 -6.176882e+00 228 189 114
-1.841077e+00 -2.643483e+00 -4.953872e+00 176 173 180
-1.841077e+00 -2.643483e+00 -4.953872e+00 176 173 180
-1.581137e+00 -2.910801e+00 -4.934877e+00 168 169 174
-1.012240e+00 -3.536829e+00 -4.801149e+00 206 204 209
3.021814e+00 1.122123e+00 -6.496865e+00 177 146 125
-9.616131e-02 -3.954487e+00 -4.815266e+00 196 212 149
-3.152541e+00 -1.037516e+00 -5.277408e+00 211 216 155
-2.070528e+00 -2.759021e+00 -4.898489e+00 247 250 255
-1.956385e+00 -3.294973e+00 -4.769595e+00 180 175 179
3.321892e+00 3.610404e-01 -6.327511e+00 141 120 109
-1.472173e+00 -1.830928e+00 -5.224944e+00 96 108 124
-2.087531e+00 -1.797841e+00 -5.172534e+00 137 133 140
2.594614e+00 -8.197830e-01 -5.901459e+00 44 60 48
1.505278e+00 -2.602115e+00 -5.285356e+00 74 69 72
-3.085536e-01 -3.414642e+00 -4.887467e+00 216 224 227
-3.335008e-01 -3.554501e+00 -4.855260e+00 218 223 229
-3.357483e-01 -3.550803e+00 -4.847329e+00 218 223 229
-1.831620e+00 -3.299433e-01 -5.619784e+00 224 214 215
-2.107863e+00 -2.219419e+00 -5.062031e+00 206 196 197
-2.120858e+00 -1.749966e+00 -5.160586e+00 142 142 144
-1.982013e+00 1.810544e+00 -6.190653e+00 170 179 174
-2.504604e+00 -1.611092e+00 -5.197155e+00 231 234 227
3.195560e+00 -2.225036e+00 -5.602518e+00 191 178 144
3.410076e+00 3.696941e-01 -6.324830e+00 209 190 175
3.328572e+00 3.117567e-01 -6.327493e+00 203 181 168
3.264665e+00 2.216369e-01 -6.255727e+00 191 169 156
3.264665e+00 2.216369e-01 -6.255727e+00 191 169 156
3.100952e+00 -3.042941e-02 -6.182294e+00 189 166 153
2.560612e+00 -9.807386e-01 -5.857084e+00 142 154 134
-3.348729e-01 -2.973888e+00 -5.009947e+00 149 173 139
-2.178610e+00 -7.721945e-01 -5.432319e+00 220 214 214
-2.294626e+00 -9.388903e-01 -5.395568e+00 153 148 145
2.613281e+00 -6.593376e-01 -5.931276e+00 151 163 161
1.769256e+00 -3.134557e+00 -5.191249e+00 88 78 76
1.557776e+00 -2.577164e+00 -5.325054e+00 171 165 169
1.175449e+00 -3.249364e+00 -5.083043e+00 76 70 72
1.960979e-01 2.963933e-01 -3.907649e+00 230 180 127
-1.137347e-01 -3.337022e+00 -4.920308e+00 123 129 143
-2.156583e-01 -3.442365e+00 -4.944328e+00 162 169 177
2.228264e-01 1.850293e+00 -6.412831e+00 174 147 130
2.909118e-02 1.732718e+00 -6.331498e+00 188 161 142
-2.344898e-02 1.797455e+00 -6.375225e+00 194 165 147
-1.239430e+00 -3.470131e+00 -4.783234e+00 230 228 239
-1.189208e+00 -2.419495e+00 -5.053470e+00 172 184 196
-1.495861e+00 -2.772358e+00 -4.940268e+00 219 217 228
-1.489068e+00 -1.862490e+00 -5.201189e+00 187 196 213
-2.113837e+00 -3.147037e+00 -4.792241e+00 220 215 221
-1.990232e+00 -7.560616e-01 -5.470045e+00 125 121 120
-2.156350e+00 -7.298980e-01 -5.482394e+00 223 217 217
-2.266806e+00 -4.484326e-01 -5.511354e+00 159 145 145
-2.318552e+00 5.220887e-01 -5.764990e+00 205 209 218
-2.375804e+00 4.558827e-01 -5.758495e+00 218 191 140
-2.849232e+00 3.112231e-01 -5.716699e+00 237 202 132
3.327671e+00 6.161050e-03 -6.206522e+00 195 173 160
2.294721e+00 -3.269546e+00 -5.232172e+00 181 141 84
2.196441e+00 -2.240129e+00 -5.469980e+00 199 182 174
2.050684e+00 -3.336269e+00 -5.175590e+00 147 110 61
1.985145e+00 -2.907066e+00 -5.289903e+00 84 73 67
1.902335e+00 -1.834196e+00 -5.564503e+00 191 183 181
1.864930e+00 -1.685752e+00 -5.606443e+00 111 101 100
7.101742e-01 -3.932147e+00 -4.840068e+00 81 72 74
1.247722e-01 2.563120e-01 -3.885153e+00 244 205 172
3.702250e-01 -3.381617e+00 -4.995412e+00 187 187 194
3.407680e-01 1.679834e+00 -6.406861e+00 163 133 108
-5.942783e-01 -3.023173e+00 -4.969418e+00 177 192 164
-6.370914e-01 -3.432595e+00 -4.832041e+00 132 140 115
-1.208448e+00 -3.657462e+00 -4.728737e+00 218 215 226
-1.603329e+00 -3.299695e-01 -5.123779e+00 63 58 59
-1.882113e+00 -4.678215e-01 -5.570120e+00 212 206 208
-1.899724e+00 -5.346777e-01 -5.555548e+00 220 216 217
-2.136194e+00 1.697428e+00 -6.142117e+00 170 177 170
-2.324130e+00 7.518551e-01 -5.865449e+00 207 168 94
-2.779517e+00 4.034424e-01 -5.722267e+00 232 171 162
-2.976547e+00 -2.114153e+00 -4.974305e+00 205 191 191
-2.817169e+00 1.978832e+00 -6.161691e+00 108 106 110
-3.204528e+00 -2.234448e+00 -4.960104e+00 190 177 171
-3.259842e+00 -2.149616e+00 -4.957441e+00 133 118 109
-3.171899e+00 3.372953e-02 -5.585511e+00 235 217 215
-3.171899e+00 3.372953e-02 -5.585511e+00 235 217 215
1.448872e+00 -3.608458e+00 -4.969516e+00 109 95 92
1.256576e+00 2.611369e+00 -6.740720e+00 149 114 87
2.169404e-01 -3.272950e+00 -4.978330e+00 183 192 201
-3.672613e-02 -3.433691e+00 -4.928570e+00 221 225 236
-1.805479e-01 -4.089622e+00 -4.788478e+00 190 193 143
2.917880e-01 1.850478e+00 -6.368522e+00 125 98 81
7.932074e-02 1.570463e+00 -6.356965e+00 114 82 59
-5.697957e-02 3.493553e+00 -6.867997e+00 125 126 120
-3.662399e-01 1.167738e+00 -6.154886e+00 186 155 137
-9.124808e-01 -4.340017e+00 -4.585854e+00 225 223 228
-9.124808e-01 -4.340017e+00 -4.585854e+00 225 223 228
-1.210335e+00 -4.037393e+00 -4.626387e+00 224 221 228
-7.604043e-01 1.879518e+00 -6.312313e+00 206 186 177
-1.051492e+00 2.642325e+00 -6.513965e+00 197 178 171
-1.674795e+00 -3.334201e+00 -4.800728e+00 235 235 245
-1.499810e+00 -3.694927e-02 -5.708726e+00 152 134 131
-1.663219e+00 -1.577806e-01 -5.663455e+00 217 203 203
-1.663219e+00 -1.577806e-01 -5.663455e+00 217 203 203
-1.809335e+00 -5.157970e-01 -5.556125e+00 109 107 110
-1.852422e+00 -4.237333e-01 -5.569898e+00 209 203 205
-1.705870e+00 2.419359e+00 -6.372389e+00 208 209 201
-1.906934e+00 1.563125e-01 -5.720748e+00 150 135 135
-1.971777e+00 -2.846650e-01 -5.612637e+00 148 137 136
-2.023521e+00 -6.765960e-01 -5.504336e+00 223 217 217
-2.338811e+00 -1.097384e+00 -5.424855e+00 145 137 135
-2.591513e+00 -4.874934e-01 -5.500162e+00 143 129 129
-2.953990e+00 7.797569e-01 -5.804749e+00 189 58 70
-2.936458e+00 7.593156e-01 -5.820237e+00 189 58 70
3.273237e+00 -9.236601e-01 -5.947978e+00 164 152 109
3.144567e+00 -1.622398e+00 -5.751651e+00 121 103 89
2.828934e+00 -1.667108e+00 -5.681768e+00 117 99 95
-6.479331e-01 -3.926089e+00 -4.706308e+00 156 161 153
-6.479331e-01 -3.926089e+00 -4.706308e+00 156 161 153
-3.796046e-01 1.292978e+00 -6.097702e+00 120 91 75
-7.224640e-01 1.029215e+00 -6.078032e+00 204 178 165
-1.143465e+00 4.214835e-01 -5.907155e+00 141 112 104
-1.288361e+00 6.062861e-01 -5.912947e+00 216 196 195
-1.453443e+00 4.901653e-01 -5.858251e+00 205 188 181
-1.453443e+00 4.901653e-01 -5.858251e+00 205 188 181
-1.743877e+00 -2.034954e+00 -5.124538e+00 234 234 244
-1.617871e+00 3.554068e-01 -5.825106e+00 217 200 193
-1.864677e+00 1.019676e-01 -5.726436e+00 152 136 136
-1.693706e+00 2.302027e+00 -6.357104e+00 172 175 166
-1.709200e+00 3.306082e+00 -6.648894e+00 84 91 83
-2.170798e+00 -5.702130e-02 -5.659472e+00 227 211 211
-2.390008e+00 5.285851e-01 -5.784972e+00 118 122 131
-2.568995e+00 -5.894466e-01 -5.471784e+00 219 205 205
-2.569786e+00 -5.866019e-01 -5.472265e+00 219 205 205
-3.254469e+00 -1.596279e+00 -5.123436e+00 139 122 115
6.135822e-01 -3.712990e+00 -4.975269e+00 112 110 115
-1.250717e+00 6.708210e-02 -5.705212e+00 184 143 114
-1.318215e+00 9.499455e-01 -5.969589e+00 210 176 104
-1.771470e+00 -3.245032e+00 -4.849289e+00 237 237 247
-2.532482e+00 -4.516031e-01 -5.518586e+00 153 139 139
-2.882837e+00 1.241084e+00 -5.921642e+00 206 168 97
1.522437e-01 -4.450051e+00 -4.657021e+00 131 121 112
-8.432307e-02 1.688125e+00 -6.349381e+00 131 100 80
-3.307195e-01 8.921229e-01 -6.046904e+00 130 90 64
-1.193566e+00 -4.202142e+00 -4.602171e+00 136 136 137
-1.518418e+00 8.230989e-01 -5.911437e+00 218 180 110
-1.450340e+00 1.985934e+00 -6.278521e+00 176 181 175
-1.903450e+00 -7.266052e-01 -5.525226e+00 138 132 134
-2.450735e+00 -2.966304e+00 -4.829593e+00 149 140 145
-2.571439e+00 -2.462079e+00 -4.949079e+00 228 228 224
-3.033092e+00 -1.439720e+00 -5.233946e+00 139 123 123
3.306583e+00 -1.624965e+00 -5.648932e+00 149 137 95
-8.507507e-02 -4.000579e+00 -4.818802e+00 183 197 140
-1.050417e+00 5.446916e-01 -5.965580e+00 136 112 101
-1.050417e+00 5.446916e-01 -5.965580e+00 136 112 101
-1.108885e+00 9.261500e-01 -6.066738e+00 148 128 117
-1.327721e+00 7.541464e-01 -5.993948e+00 149 131 129
-1.820693e+00 3.899086e-01 -5.792197e+00 141 122 115
-2.247822e+00 -3.698171e-01 -5.635405e+00 151 137 137
-1.385394e+00 7.861325e-02 -5.756877e+00 210 193 186
1.858853e+00 -3.290667e+00 -5.158016e+00 77 66 62
1.538034e+00 -3.032926e+00 -5.208360e+00 186 181 177
-9.110625e-01 -3.172202e+00 -4.936358e+00 142 137 143
-1.875786e+00 6.193324e-01 -5.890931e+00 220 183 115
-2.132679e+00 -5.528281e-01 -5.519848e+00 233 227 227
2.172550e+00 -3.004199e+00 -5.276121e+00 200 187 174
-2.026188e+00 -7.509862e-01 -5.534558e+00 152 146 146
2.128660e+00 8.122680e-01 -4.717103e+00 171 122 109
2.974785e-02 1.779774e+00 -6.401510e+00 162 126 105
-1.307181e-01 2.256383e+00 -6.481001e+00 128 129 116
2.441601e+00 1.337555e+00 -6.502295e+00 148 100 62
1.188083e+00 2.462218e+00 -6.713654e+00 127 92 62
1.188083e+00 2.462218e+00 -6.713654e+00 127 92 62
3.190913e+00 -2.819534e-01 -6.147917e+00 142 121 109
2.383787e+00 1.294289e+00 -6.488801e+00 160 113 71
2.225896e+00 1.658229e+00 -6.539628e+00 177 123 80
7.677691e-01 2.023432e+00 -4.971984e+00 126 63 53
9.499588e-01 2.810705e+00 -6.767197e+00 144 121 107
9.593138e-01 2.264204e+00 -6.617092e+00 182 145 118
-1.290423e+00 6.042642e-01 -5.916885e+00 236 217 210
-1.617857e+00 3.586031e-01 -5.821583e+00 245 230 227
-2.167830e+00 -5.568660e-02 -5.665087e+00 224 214 215
-4.788670e-01 3.231071e+00 -6.743016e+00 162 164 150
3.507040e-02 3.806133e+00 -6.957517e+00 206 197 192
3.557573e-02 3.804707e+00 -6.960947e+00 206 197 192
3.557573e-02 3.804707e+00 -6.960947e+00 206 197 192
-5.780328e-01 3.248341e+00 -6.706296e+00 175 179 164
2.533125e+00 -1.123940e+00 -5.808915e+00 131 122 113
2.531015e+00 -1.119777e+00 -5.804664e+00 131 122 113
-2.548509e+00 6.741383e-01 -5.787065e+00 228 208 169
-1.309722e+00 3.994449e-01 -5.870801e+00 153 135 133
3.713808e-01 1.583842e+00 -4.789287e+00 230 206 206
-2.292211e+00 -2.713389e+00 -4.880433e+00 230 239 234
4.733124e-01 1.775578e+00 -4.802018e+00 236 181 191
1.844022e+00 5.445614e-01 -4.596347e+00 100 91 92
-1.544089e+00 -1.956603e+00 -5.170119e+00 135 148 162
3.885907e-01 1.515991e+00 -4.781225e+00 126 103 109
3.898808e-01 1.524149e+00 -4.791748e+00 126 103 109
1.811364e+00 5.497269e-01 -4.593287e+00 234 218 221
-3.545840e-02 4.697849e-01 -3.947733e+00 198 118 46
1.771429e+00 4.282738e-01 -4.587814e+00 253 181 154
2.934100e+00 -3.055820e-01 -6.123300e+00 124 132 119
4.220958e+00 -7.241460e-01 -6.098551e+00 208 145 76
-6.076819e-01 -8.664592e-01 -3.665338e+00 163 114 95
-7.691714e-01 -8.750427e-01 -3.676684e+00 174 188 149
-5.509851e-01 -1.079840e+00 -3.656326e+00 247 243 197
-2.958533e+00 -2.232165e+00 -4.985715e+00 237 226 232
-2.549841e+00 -2.339278e+00 -4.989998e+00 169 172 177
2.248513e+00 1.782194e+00 -6.591473e+00 163 120 83
-3.944280e-01 6.705323e-02 -3.192403e+00 232 174 4
2.823515e+00 -8.566340e-01 -5.895318e+00 142 143 133
2.275089e+00 -2.333388e+00 -5.440695e+00 127 110 103
-2.543262e+00 -2.603498e+00 -4.916853e+00 148 148 148
2.827215e+00 2.314481e+00 -6.795006e+00 79 49 25
5.351067e-01 1.774148e+00 -4.804106e+00 147 95 96
-4.177387e-01 2.132779e+00 -6.445065e+00 153 155 148
5.063277e-01 1.665304e+00 -4.783310e+00 135 110 112
3.141874e+00 1.905416e+00 -6.711151e+00 131 99 60
2.076298e+00 7.546433e-01 -4.705879e+00 168 127 118
1.624382e+00 5.111703e-01 -4.625005e+00 136 78 131
-8.194621e-01 -8.147496e-01 -3.704085e+00 154 143 89
-8.652380e-01 -8.413337e-01 -3.695025e+00 249 243 168
-8.652496e-01 -8.413653e-01 -3.698191e+00 249 243 168
-6.532688e-01 -8.455117e-01 -3.662651e+00 224 231 165
-3.583734e-01 -9.132746e-01 -3.655785e+00 232 249 254
3.559749e+00 -1.580502e+00 -5.788422e+00 48 50 32
-1.373102e+00 -2.330662e+00 -5.056610e+00 239 252 255
-1.369681e+00 -2.790618e+00 -4.966668e+00 235 242 251
7.175242e-02 3.472332e+00 -6.867134e+00 201 203 198
2.084763e-01 3.461407e+00 -6.893119e+00 197 199 194
3.029994e+00 2.519719e+00 -6.871450e+00 133 106 87
2.338185e+00 2.469421e+00 -6.807722e+00 119 83 55
2.839915e+00 2.400176e+00 -6.825705e+00 147 117 94
2.811507e+00 2.204098e+00 -6.773994e+00 159 129 103
2.348460e+00 1.983569e+00 -6.627474e+00 174 127 92
3.256772e+00 1.909980e+00 -6.726907e+00 176 138 101
3.791514e+00 5.350016e-01 -6.440967e+00 156 152 114
-2.498253e+00 6.119309e-01 -5.793819e+00 239 244 243
3.875004e+00 -6.003536e-01 -6.090812e+00 128 72 37
-4.552840e-01 -8.144022e-01 -3.657235e+00 107 143 165
-4.552840e-01 -8.144022e-01 -3.657235e+00 107 143 165
-6.967273e-01 -9.095618e-01 -3.672514e+00 155 186 116
2.761062e+00 -1.111012e+00 -5.856136e+00 50 67 40
-4.252654e-01 -9.286734e-01 -3.654430e+00 117 159 177
2.607335e+00 -1.293687e+00 -5.799429e+00 157 152 148
-3.392069e+00 -1.591856e+00 -5.125064e+00 228 214 213
-2.651266e+00 -2.258970e+00 -4.950189e+00 246 245 251
2.161624e+00 -2.413346e+00 -5.405955e+00 126 108 106
-1.546098e-01 3.371502e+00 -6.839973e+00 214 215 209
3.107018e+00 2.777467e+00 -6.973158e+00 160 129 108
2.444545e+00 2.548940e+00 -6.819943e+00 166 132 104
1.969418e+00 -7.469623e-01 -5.902535e+00 97 92 94
2.319994e+00 -2.382909e+00 -5.483335e+00 124 106 96
-2.706108e+00 3.877434e-01 -5.739101e+00 200 99 98
3.333762e+00 2.000168e+00 -6.762254e+00 166 132 93
3.339517e+00 -7.498296e-01 -6.007793e+00 158 159 102
-6.418100e-01 3.367585e+00 -6.774706e+00 186 189 180
2.421701e+00 2.660153e+00 -6.863403e+00 127 93 66
-4.073244e+00 6.845380e-01 -5.708184e+00 107 55 41
-4.073244e+00 6.845380e-01 -5.708184e+00 107 55 41
2.046838e+00 -1.357963e+00 -5.760450e+00 64 59 66
-1.692689e+00 -1.849484e+00 -5.186406e+00 194 200 215
1.913568e+00 6.202054e-01 -4.609846e+00 203 88 41
-8.005297e-01 -4.416687e-01 -3.714041e+00 142 116 165
-7.277225e-01 -6.505133e-01 -3.702546e+00 216 135 64
-1.657762e+00 -1.853895e+00 -5.184359e+00 111 118 134
-2.192447e+00 -2.460798e+00 -4.981907e+00 191 197 195
-7.294078e-01 -3.142611e-01 -3.732900e+00 211 192 170
-5.757362e-01 -3.577947e+00 -4.820835e+00 128 118 106
5.074694e-01 1.671641e+00 -4.778587e+00 124 112 114
3.442401e-01 1.522862e+00 -4.784125e+00 251 239 248
1.657091e+00 4.114978e-01 -4.580949e+00 167 102 84
-7.473827e-01 -5.074072e-01 -3.718597e+00 230 231 231
-5.671400e-01 -1.067496e+00 -3.613984e+00 208 201 154
-4.231190e+00 9.055485e-01 -5.744327e+00 217 159 93
1.529000e-01 -2.885984e+00 -5.089161e+00 128 140 130
-3.365618e+00 -5.199998e-01 -5.368894e+00 187 202 151
9.420128e-03 -3.497326e+00 -4.886999e+00 100 98 99
-1.434938e-01 -3.713998e+00 -4.849540e+00 113 110 92
9.676479e-01 3.412912e+00 -7.004741e+00 97 96 94
2.062808e-01 3.461060e+00 -6.887951e+00 189 198 197
-4.016213e-01 2.275103e-01 -3.184091e+00 217 155 0
-4.555516e-01 -7.438763e-01 -3.671575e+00 186 211 251
-7.569106e-01 -5.752800e-01 -3.703513e+00 244 237 230
-6.838834e-01 -7.202727e-01 -3.676499e+00 253 199 120
-5.057051e-01 -8.930116e-01 -3.655062e+00 126 150 153
-7.408686e-01 -7.591554e-01 -3.690079e+00 236 208 119
4.567424e-01 -2.398748e+00 -5.282713e+00 101 101 111
-1.984488e-01 -2.872189e+00 -5.053012e+00 125 141 110
-1.705403e+00 -1.880233e+00 -5.182201e+00 215 221 235
4.327009e+00 8.923373e-01 -6.471513e+00 148 110 48
1.392959e-01 2.473668e+00 -6.565098e+00 174 180 176
4.728568e-01 1.593787e+00 -4.776858e+00 226 206 207
3.938949e+00 -7.120845e-01 -6.065901e+00 53 45 16
-6.424088e-01 -5.506542e-01 -3.694686e+00 255 201 108
-1.375498e+00 -2.643052e+00 -4.998772e+00 198 198 206
-2.213872e+00 -2.143332e+00 -5.071028e+00 214 209 216
4.456192e+00 6.995352e-01 -6.506796e+00 127 57 12
5.035334e+00 1.410005e-01 -6.430388e+00 137 109 88
4.047499e+00 5.915646e-01 -6.460482e+00 148 131 108
-2.002241e-01 3.650209e+00 -6.885687e+00 200 209 208
1.218416e-01 2.363265e+00 -6.598778e+00 137 143 139
-6.457078e-01 1.807061e+00 -6.291616e+00 146 128 126
-2.249479e+00 1.545156e+00 -6.072265e+00 210 205 175
-2.472705e+00 -2.582054e-01 -5.592774e+00 151 145 151
5.940876e-01 -2.501952e+00 -5.265683e+00 97 97 109
-2.302501e+00 -7.138512e-01 -5.444713e+00 152 150 155
-4.320266e+00 5.331285e-01 -5.616653e+00 207 143 72
-2.319228e+00 -9.698794e-01 -5.356722e+00 163 158 164
-7.869655e-01 -2.937511e+00 -4.970592e+00 107 98 99
4.338029e+00 5.873749e-01 -6.497508e+00 182 139 97
-2.038286e+00 -5.296610e-02 -5.663973e+00 158 152 156
1.954173e+00 -2.854558e+00 -5.253830e+00 65 48 33
-4.273042e+00 1.956647e-01 -5.550408e+00 212 147 78
-5.499358e-01 3.968301e+00 -6.896955e+00 128 127 125
-7.480814e-01 3.665723e+00 -6.841472e+00 131 128 125
-3.575252e-01 2.313185e+00 -6.501170e+00 174 180 176
-1.805645e+00 3.011241e+00 -6.536510e+00 183 196 202
-6.430501e-01 2.051873e+00 -6.377008e+00 154 139 137
-2.374136e+00 -1.466471e+00 -5.238988e+00 228 231 236
8.546099e-01 -3.782270e+00 -4.961656e+00 12 8 5
7.186529e-03 1.974339e-01 -3.156280e+00 214 170 86
-2.171623e+00 -1.684152e+00 -5.165851e+00 137 144 137
-1.819946e+00 -2.994375e+00 -5.798785e+00 234 235 240
-1.111467e+00 -4.094970e+00 -6.851885e+00 191 208 190
-1.793803e+00 -1.683384e+00 -5.225306e+00 221 214 223
1.745079e-01 1.154893e-01 -3.850903e+00 126 89 63
-1.785477e+00 -1.806212e+00 -5.174745e+00 231 225 237
1.700134e+00 4.059339e-01 -4.592730e+00 250 169 140
1.790491e+00 5.137978e-01 -4.594684e+00 126 56 24
-2.732329e-01 -3.480428e+00 -4.868809e+00 220 225 231
-1.785983e-01 -3.633422e+00 -4.839692e+00 224 229 233
3.070300e+00 -2.232020e-01 -6.084832e+00 127 127 116
-4.172192e+00 4.589967e-01 -5.684322e+00 71 28 16
5.856706e-01 1.814079e+00 -4.822096e+00 223 188 179
5.139277e-01 1.725544e+00 -4.791490e+00 222 219 215
3.864270e-01 1.460895e+00 -4.776602e+00 245 212 208
2.583707e+00 1.696158e+00 -6.579003e+00 97 56 30
-3.349433e-01 -3.056484e+00 -4.987463e+00 213 231 207
-3.175205e-01 -3.713756e+00 -4.808697e+00 145 149 152
2.833757e+00 -5.075996e-01 -6.002017e+00 143 153 145
-7.861776e-02 4.127934e+00 -7.050703e+00 116 121 114
-2.762811e+00 3.812450e-01 -5.724634e+00 254 203 191
-3.402154e-01 2.143344e+00 -6.436228e+00 146 141 128
6.004580e-01 1.857824e+00 -4.846517e+00 126 94 75
6.418269e-01 1.922873e+00 -4.897407e+00 135 97 69
5.861420e-01 1.813918e+00 -4.823241e+00 224 188 179
-2.118204e+00 -1.892490e+00 -5.140792e+00 158 158 160
2.083450e+00 2.291984e+00 -6.728830e+00 159 120 81
2.428640e+00 2.457220e+00 -6.786821e+00 131 101 77
1.818760e+00 5.803302e-01 -4.595680e+00 223 218 222
1.852343e+00 6.119896e-01 -4.601984e+00 79 75 73
1.936254e+00 7.272233e-01 -4.642648e+00 189 169 164
-1.129460e+00 -3.334511e+00 -4.858001e+00 240 239 245
2.590868e+00 1.330040e+00 -6.490593e+00 145 97 54
2.935923e+00 1.631200e+00 -6.636193e+00 81 50 19
2.754961e+00 1.147210e+00 -6.468926e+00 158 122 86
2.737742e+00 2.529384e-01 -6.208629e+00 121 99 85
3.060244e+00 2.332904e-01 -6.195613e+00 128 108 97
3.142096e+00 1.414411e-01 -6.203231e+00 112 91 79
-1.014507e-01 -4.173470e+00 -4.701401e+00 208 178 158
-2.953777e+00 4.376955e-01 -5.718125e+00 248 204 139
-4.260142e+00 -2.147578e+00 -4.884572e+00 194 166 142
-4.260142e+00 -2.147578e+00 -4.884572e+00 194 166 142
-3.908180e+00 -2.286549e+00 -4.847110e+00 118 103 84
9.610352e-01 2.819718e+00 -6.759832e+00 119 101 87
-9.561664e-02 2.454314e-01 -3.862740e+00 244 213 193
1.283543e+00 2.465302e+00 -6.722248e+00 138 102 76
9.980067e-02 1.542497e-01 -3.865053e+00 194 155 123
-1.924747e+00 -3.341723e+00 -4.760016e+00 250 248 253
2.385223e+00 1.932386e+00 -6.619914e+00 172 110 79
2.658417e+00 2.259164e+00 -6.785160e+00 142 112 84
2.178885e+00 1.614955e+00 -6.524659e+00 98 53 14
2.178885e+00 1.614955e+00 -6.524659e+00 98 53 14
2.282131e+00 1.692528e+00 -6.592561e+00 100 54 21
2.005169e+00 9.291476e-01 -4.774039e+00 128 96 85
2.656857e+00 1.655500e+00 -6.618814e+00 74 42 17
2.972415e+00 1.977466e+00 -6.727212e+00 130 103 76
3.115637e+00 1.284638e+00 -6.533607e+00 111 80 49
2.700673e+00 1.315402e-01 -6.163768e+00 112 94 82
2.700673e+00 1.315402e-01 -6.163768e+00 112 94 82
2.947020e+00 1.229441e-01 -6.212168e+00 178 159 145
3.079750e+00 1.323496e-01 -6.210406e+00 175 155 144
2.439892e+00 -9.773720e-01 -5.912922e+00 89 87 77
-4.214040e+00 4.359599e-01 -5.626867e+00 219 145 58
-1.183901e+00 3.967535e+00 -6.857272e+00 90 85 80
7.727605e-03 4.083617e+00 -7.041883e+00 174 175 170
3.198613e-01 4.360438e+00 -7.168008e+00 173 178 174
-2.797688e+00 4.183189e-01 -5.744361e+00 252 216 198
-4.072469e+00 -1.222160e+00 -5.168293e+00 218 191 174
-3.628086e+00 -1.570063e+00 -5.121787e+00 221 199 191
-3.628086e+00 -1.570063e+00 -5.121787e+00 221 199 191
1.937634e+00 2.813883e+00 -6.864488e+00 151 119 98
2.131049e+00 2.391690e+00 -6.782456e+00 156 121 83
2.262925e+00 2.497070e+00 -6.823083e+00 150 115 85
-1.447750e+00 -2.723651e+00 -5.006029e+00 249 252 255
2.354950e+00 1.789111e+00 -6.618125e+00 165 110 77
2.105179e+00 8.778863e-01 -4.777467e+00 157 119 102
2.458252e+00 1.280694e+00 -6.470653e+00 74 40 15
3.040056e+00 2.003529e+00 -6.748225e+00 80 52 30
-6.433878e-01 -3.471669e+00 -4.869889e+00 146 152 140
-8.646660e-01 -4.042859e+00 -4.674059e+00 241 240 246
-8.646660e-01 -4.042859e+00 -4.674059e+00 241 240 246
-7.275969e-01 -3.898595e+00 -4.718163e+00 248 248 250
-7.439716e-01 -4.158753e+00 -4.650335e+00 243 242 248
-6.049470e-01 -4.005363e+00 -4.675781e+00 228 228 230
-6.049470e-01 -4.005363e+00 -4.675781e+00 228 228 230
-3.643017e-01 -3.982493e+00 -4.735430e+00 216 231 186
-5.896515e-01 -4.297183e+00 -4.621247e+00 245 245 247
3.234317e+00 4.437677e-01 -6.287691e+00 172 152 141
1.799425e+00 -1.565062e+00 -5.629012e+00 105 101 102
2.619331e+00 -6.728010e-01 -5.950434e+00 145 155 147
3.752095e+00 7.783039e-01 -6.450718e+00 51 54 22
-1.185531e+00 3.786027e+00 -6.787276e+00 180 175 169
-2.767518e+00 1.423515e+00 -5.987930e+00 212 204 159
-1.829461e+00 1.832282e+00 -6.197067e+00 191 196 189
-1.266520e+00 2.331399e+00 -6.391917e+00 186 183 168
-4.058399e+00 -1.750196e+00 -5.019863e+00 198 167 149
-3.935896e+00 -2.158051e+00 -4.905624e+00 193 177 162
-4.022520e+00 -2.307827e+00 -4.862788e+00 188 170 148
-2.983528e+00 -1.470086e+00 -5.173159e+00 164 148 148
-3.318620e+00 -2.059973e+00 -5.011616e+00 144 125 119
-3.768631e+00 -2.682371e+00 -4.806781e+00 174 112 56
8.890382e-01 2.872451e+00 -6.765807e+00 99 86 73
8.224062e-01 1.941712e+00 -4.963095e+00 200 142 133
1.192677e+00 2.690021e+00 -6.718926e+00 113 82 61
-2.347191e+00 -3.047139e+00 -4.792185e+00 169 162 167
-1.540092e+00 -2.765950e+00 -4.961770e+00 231 230 236
-1.496188e+00 -3.043372e+00 -4.877561e+00 152 153 158
2.841808e+00 1.852266e+00 -6.667996e+00 143 112 84
-1.356327e+00 -3.883115e+00 -4.664829e+00 246 245 251
-1.356327e+00 -3.883115e+00 -4.664829e+00 246 245 251
2.940635e+00 1.180184e+00 -6.513011e+00 175 141 113
1.915745e+00 -6.285965e-01 -5.906044e+00 139 129 130
3.462527e+00 1.058689e+00 -6.501508e+00 157 134 118
-2.917474e-01 -3.956018e+00 -4.748553e+00 176 83 78
-2.440997e-01 -4.187086e+00 -4.678990e+00 223 228 196
-1.558731e-01 -4.168315e+00 -4.706672e+00 161 63 69
-3.597467e-01 -4.499112e+00 -4.580780e+00 139 135 129
1.872303e+00 -1.701340e+00 -5.582802e+00 107 97 96
-3.741907e+00 -2.073205e+00 -4.896386e+00 66 63 48
-3.793917e+00 -2.471675e+00 -4.836149e+00 183 137 63
8.684053e-01 2.743709e+00 -6.738351e+00 124 102 90
1.118822e+00 2.406648e+00 -6.659688e+00 165 129 105
-2.035093e+00 -3.305343e+00 -4.742219e+00 163 163 164
-1.880088e+00 -3.485177e+00 -4.706749e+00 168 164 165
2.450216e+00 1.671752e+00 -6.568468e+00 135 64 34
-1.431926e+00 -3.960449e+00 -4.621808e+00 167 161 171
1.842501e+00 -7.424269e-01 -5.879631e+00 76 70 70
1.877995e+00 -8.906506e-01 -5.824096e+00 91 87 86
1.942908e+00 -1.060197e+00 -5.806274e+00 91 87 88
5.384743e-02 -3.665465e+00 -4.887700e+00 180 203 150
-4.810603e-01 -4.460255e+00 -4.587464e+00 195 203 166
-3.398959e-01 3.997049e+00 -6.934364e+00 163 163 151
1.983585e-01 3.184890e+00 -6.777539e+00 165 166 152
6.717706e-01 2.885220e+00 -6.785045e+00 99 92 80
1.960017e+00 2.998976e+00 -6.886539e+00 92 64 40
-1.959468e+00 -3.218786e+00 -4.825980e+00 172 169 176
2.186010e+00 1.904350e+00 -6.633428e+00 154 112 72
-1.725869e+00 -3.656008e+00 -4.689663e+00 164 154 162
2.688207e+00 1.553919e+00 -6.582224e+00 82 48 20
-6.043689e-01 -3.809338e+00 -4.758533e+00 202 216 181
-6.451799e-01 -4.412078e+00 -4.562770e+00 156 154 157
2.495122e+00 -4.220780e-01 -5.975657e+00 123 133 99
-3.723121e-01 -4.231215e+00 -4.651984e+00 150 151 146
3.494238e+00 4.268162e-01 -6.325541e+00 111 94 76
3.494238e+00 4.268162e-01 -6.325541e+00 111 94 76
-1.000215e+00 3.795777e+00 -6.849535e+00 136 117 110
-1.221196e+00 2.068631e+00 -6.348750e+00 184 178 164
-1.501841e-01 2.989199e+00 -6.746077e+00 169 171 158
-4.010735e-01 2.529008e+00 -6.516088e+00 160 158 143
1.753884e+00 2.569862e+00 -6.836705e+00 109 75 48
-1.525520e+00 -3.828703e+00 -4.655193e+00 162 161 166
8.601178e-01 3.084333e+00 -6.858233e+00 151 148 133
8.601178e-01 3.084333e+00 -6.858233e+00 151 148 133
3.350818e+00 6.531706e-01 -6.357273e+00 106 87 72
3.359929e+00 6.475597e-01 -6.399612e+00 106 87 72
-2.210394e+00 -3.529712e+00 -4.725618e+00 218 236 181
-7.554735e-01 -3.646021e+00 -4.812794e+00 163 162 167
2.502905e-01 1.381656e-01 -3.884058e+00 172 142 106
3.763061e-01 1.583869e+00 -4.789004e+00 193 160 156
-7.465121e-01 -8.861880e-01 -3.696717e+00 138 164 105
-9.002647e-01 -7.922787e-01 -3.712325e+00 226 185 174
-9.002647e-01 -7.922787e-01 -3.712325e+00 226 185 174
-8.853644e-01 -2.523376e+00 -5.078990e+00 128 137 152
4.671323e-01 1.680101e+00 -4.787147e+00 208 188 189
-5.948001e-01 -5.366939e-01 -3.724924e+00 97 103 56
-5.974614e-01 -5.728381e-01 -3.719383e+00 236 202 145
-7.091437e-01 -6.331751e-01 -3.709644e+00 255 193 121
-1.338313e+00 -2.158981e+00 -5.130182e+00 105 117 131
-1.472668e+00 -3.120819e+00 -4.845933e+00 231 234 243
-1.548832e+00 -2.702522e+00 -4.947688e+00 225 223 234
-2.181004e+00 -2.064826e+00 -5.094236e+00 214 208 211
-2.384297e+00 -2.368782e+00 -4.963749e+00 91 97 85
3.347860e+00 2.457022e+00 -6.883218e+00 86 55 26
2.895698e+00 1.601011e+00 -6.588688e+00 128 95 60
2.384125e+00 1.852441e+00 -6.624349e+00 113 48 18
1.721989e+00 -2.932147e+00 -5.261685e+00 82 72 70
1.658925e+00 -2.876013e+00 -5.217587e+00 200 190 188
1.023918e+00 -3.556584e+00 -4.974271e+00 78 75 77
7.633180e-01 2.616015e+00 -6.759763e+00 95 75 60
-8.714810e-03 -3.594599e+00 -4.873074e+00 136 144 132
-7.175235e-01 -5.534342e-01 -3.718895e+00 103 97 88
9.772004e-03 2.244246e+00 -6.443110e+00 174 154 125
-6.054285e-01 -3.602172e+00 -4.809972e+00 206 211 204
-8.739968e-01 -7.900388e-01 -3.707186e+00 126 91 48
-3.634132e-01 7.473134e-01 -6.049838e+00 112 68 41
-1.033584e+00 -3.602502e+00 -4.802853e+00 154 151 158
-1.062254e+00 -3.564570e+00 -4.806073e+00 224 222 232
-1.111465e+00 -3.461050e+00 -4.796238e+00 223 221 232
-1.148830e+00 -2.515065e+00 -5.069503e+00 157 167 179
-1.255211e+00 -2.254997e+00 -5.101144e+00 119 131 143
-1.806956e+00 -3.802632e-01 -5.586983e+00 137 128 131
-1.806956e+00 -3.802632e-01 -5.586983e+00 137 128 131
3.608838e+00 8.273502e-01 -6.488567e+00 158 142 116
3.462776e+00 2.393619e+00 -6.940706e+00 95 64 35
2.542299e+00 1.867688e+00 -6.646749e+00 167 113 83
2.213130e+00 2.082992e+00 -6.667390e+00 163 121 83
2.102733e+00 2.263906e+00 -6.733941e+00 155 113 75
1.172834e+00 -3.551813e+00 -5.014509e+00 72 68 69
1.126315e+00 2.465943e+00 -6.674575e+00 146 111 83
4.403629e-01 1.525439e+00 -4.785678e+00 218 183 181
-1.127066e-01 -3.337297e+00 -4.917000e+00 123 129 143
-1.682312e-01 -3.726026e+00 -4.823390e+00 155 162 144
-2.305214e-01 -3.175456e+00 -4.969077e+00 109 127 106
1.536780e-01 1.926316e+00 -6.447421e+00 192 164 151
-6.223387e-01 -4.395543e-01 -3.750059e+00 154 183 217
1.077906e-01 1.782520e+00 -6.360402e+00 180 153 134
-3.587618e-01 -3.471735e+00 -4.874764e+00 233 239 239
6.315751e-02 2.318955e+00 -6.564057e+00 118 122 105
-5.020059e-01 -3.402222e+00 -4.907569e+00 195 204 183
-5.582970e-01 -3.342424e+00 -4.880921e+00 187 198 166
-2.131477e-01 9.591888e-01 -6.122292e+00 162 125 99
-2.131477e-01 9.591888e-01 -6.122292e+00 162 125 99
-5.957614e-01 -3.366109e+00 -4.867963e+00 138 149 116
-8.658206e-01 -8.304791e-01 -3.688669e+00 243 228 142
-8.852498e-01 -7.364504e-01 -3.710899e+00 231 184 145
-3.696175e-01 8.391408e-01 -6.071041e+00 174 132 107
-4.044215e-01 9.014549e-01 -6.073604e+00 173 137 111
-8.059073e-01 -3.765504e+00 -4.736424e+00 130 128 129
-4.263801e-01 8.369020e-01 -6.058377e+00 115 76 47
-1.007211e+00 -2.514745e-01 -3.899091e+00 137 79 119
-5.727662e-01 8.443225e-01 -6.022003e+00 129 92 66
-9.684097e-01 -3.506593e+00 -4.824742e+00 174 171 178
-1.025870e+00 -3.493229e+00 -4.788422e+00 224 221 228
-1.187369e+00 -2.556172e+00 -5.060797e+00 160 170 182
-1.187369e+00 -2.556172e+00 -5.060797e+00 160 170 182
-1.481943e+00 -2.972466e+00 -4.904411e+00 165 163 174
-1.430341e+00 -1.531934e-01 -5.670906e+00 136 115 104
-1.430341e+00 -1.531934e-01 -5.670906e+00 136 115 104
-1.716753e+00 -2.530557e+00 -5.009635e+00 172 176 181
-1.912315e+00 -3.991631e-01 -5.557829e+00 153 147 149
-2.016894e+00 1.676002e+00 -6.154905e+00 175 181 175
-2.699810e+00 -3.978327e-01 -5.550894e+00 152 138 138
-2.945510e+00 -2.249838e+00 -4.962723e+00 211 199 199
-2.945510e+00 -2.249838e+00 -4.962723e+00 211 199 199
3.692309e+00 8.373026e-01 -6.494343e+00 82 76 37
3.346279e+00 1.793147e+00 -6.664483e+00 170 134 97
3.275029e+00 1.825448e+00 -6.705598e+00 86 47 4
3.138399e+00 2.499452e+00 -6.890036e+00 63 34 8
3.135533e+00 2.221944e+00 -6.884870e+00 148 115 84
1.977451e+00 6.471005e-01 -4.656057e+00 223 124 69
2.946810e+00 2.140797e+00 -6.758883e+00 150 117 86
2.661618e+00 1.875852e+00 -6.639768e+00 89 54 24
