ply
format ascii 1.0
element vertex 739
property float x
property float y
property float z
property float nx
property float ny
property float nz
property uchar diffuse_red
property uchar diffuse_green
property uchar diffuse_blue
end_header
2.60337 -0.918343 -5.7761 -0.83443 0.021003 0.550714 226 43 66
-5.5381 10.556 -9.41135 0.310809 -0.128154 0.941793 5 5 5
-5.43693 10.5123 -9.43322 0.117165 -0.309786 0.94356 8 8 10
-5.36486 10.3919 -9.47602 0.12077 -0.328598 0.936717 29 28 34
-5.28818 10.3482 -9.50036 0.292062 -0.824707 0.484313 46 44 53
-5.20305 10.3389 -9.47049 0.0801903 -0.425932 0.901194 25 23 32
-1.40482 0.492443 -4.86275 -0.423858 -0.243834 0.87229 228 176 191
-1.31032 0.401348 -4.82288 -0.376635 -0.145679 0.914835 236 178 191
-1.25203 0.377241 -4.82709 -0.462128 -0.346998 0.816107 239 181 194
-1.07178 0.230319 -4.83727 -0.264513 -0.618955 0.739545 222 167 183
-0.848989 -0.0428222 -4.74923 -0.237683 -0.171476 0.956087 233 175 189
-0.356966 -0.0258397 -4.98235 0.810686 -0.547147 0.208371 190 131 146
-0.258147 0.0640077 -5.12017 0.462217 -0.562349 0.685652 117 68 80
0.108103 0.434726 -5.52373 0.296309 -0.129287 0.946301 232 225 236
0.167974 0.434726 -5.54248 0.296311 -0.129287 0.946301 233 223 231
0.488564 0.393465 -5.68819 0.183598 -0.969765 0.160774 151 15 26
0.782478 0.362629 -5.79715 0.242285 -0.905911 0.347309 185 25 40
0.869931 0.283539 -5.7968 0.0774145 -0.0219066 0.996758 187 24 40
1.04053 -0.0206447 -5.67906 -0.22616 0.157407 0.961288 166 66 80
1.19207 -0.298058 -5.53905 0.0552524 -0.318505 0.94631 214 146 157
1.19075 -0.297504 -5.54077 0.315087 -0.324188 0.891976 210 142 154
2.16406 0.415891 -6.50519 -0.218113 -0.054115 0.974422 125 69 62
2.19973 0.415047 -6.48376 -0.0630145 -0.0815133 0.994678 136 81 70
2.21918 0.374521 -6.47409 -0.281011 -0.0424307 0.958766 159 106 84
2.51815 -0.774279 -5.85761 -0.829256 -0.0572177 0.555933 218 188 61
2.56783 -0.862054 -5.85108 -0.963172 -0.047889 0.264585 228 178 73
2.58812 -0.89081 -5.81683 -0.91256 0.0539454 0.405369 214 60 48
2.60221 -0.963511 -5.77605 -0.83443 0.0209982 0.550713 226 41 66
-5.53633 10.4685 -9.49542 -0.0527144 -0.725222 0.686494 5 5 5
-5.44281 10.2721 -9.50801 0.120768 -0.328597 0.936717 17 17 20
-5.29759 10.2721 -9.52673 0.12077 -0.328598 0.936717 37 36 45
-5.1405 10.2336 -9.52583 0.0801892 -0.425932 0.901195 22 22 26
-1.38439 0.474888 -4.86431 -0.297656 -0.293665 0.908384 232 178 191
-1.29947 0.377241 -4.85395 -0.462128 -0.346998 0.816107 241 184 196
-1.14161 0.247725 -4.85262 -0.341293 -0.206949 0.916892 215 152 167
-1.07178 0.198963 -4.86353 -0.264529 -0.618952 0.739543 217 162 177
-0.886171 -0.0434041 -4.75793 -0.236534 -0.171749 0.956323 232 175 188
-0.111173 0.578569 -5.55843 -0.557431 -0.47555 0.680531 176 108 123
0.387605 0.368912 -5.64638 0.0482624 -0.995832 0.0773894 126 9 18
0.607863 0.378398 -5.78098 0.378507 -0.481478 0.790513 192 27 45
0.652435 0.375303 -5.79135 0.391637 -0.498986 0.773068 190 28 44
0.70033 0.376992 -5.80337 0.487692 -0.499648 0.715897 188 27 43
0.734662 0.347121 -5.82813 -0.0343945 -0.641742 0.766149 184 25 40
0.77046 0.330479 -5.84046 -0.0343943 -0.641742 0.766149 184 23 40
0.848479 0.24022 -5.80775 0.086686 -0.00493122 0.996223 187 23 40
0.848015 0.240196 -5.80651 0.117308 0.00636224 0.993075 187 24 39
0.848015 0.240196 -5.80651 0.117308 0.00636224 0.993075 187 24 39
1.04915 -0.0948665 -5.68575 -0.0832781 0.00572939 0.99651 194 129 143
1.06046 -0.0400365 -5.68767 -0.358296 -0.0988989 0.928355 190 113 127
2.55267 -0.831884 -5.90456 -0.87582 0.0890914 0.474344 218 189 62
2.55151 -0.831546 -5.90226 -0.87764 -0.0383712 0.477783 218 189 62
2.5666 -0.914624 -5.85653 -0.9097 0.087083 0.406033 228 161 67
2.58454 -0.942839 -5.81871 -0.909796 0.0749548 0.408231 215 51 52
2.56414 -1.06284 -5.73944 -0.847275 0.238483 0.474606 227 41 66
2.56414 -1.06284 -5.73944 -0.847275 0.238483 0.474606 227 41 66
2.56414 -1.06284 -5.73944 -0.847275 0.238483 0.474606 227 41 66
-5.56917 10.25 -9.49899 0.135102 -0.342053 0.929918 6 6 5
-5.34768 10.0898 -9.52123 -0.0141937 -0.476621 0.878995 40 38 48
-5.21487 10.0898 -9.51906 -0.0141929 -0.476621 0.878994 42 41 48
-1.44882 0.465426 -4.90723 -0.492811 -0.277174 0.82481 182 143 158
-1.43119 0.433288 -4.89543 -0.468609 -0.318157 0.824125 214 169 184
-1.37423 0.378647 -4.89427 -0.276689 -0.255376 0.926405 236 181 193
-1.39458 0.437527 -4.88546 -0.421987 -0.286738 0.860063 233 178 191
-1.32766 0.322908 -4.85186 -0.300941 -0.104665 0.947882 229 169 182
-0.891459 -0.0886199 -4.77732 -0.285873 -0.211476 0.934641 230 172 186
-0.359243 -0.0788185 -5.06557 0.7468 -0.54512 0.380965 206 150 164
-0.297604 -0.0276412 -5.10169 0.502517 -0.56992 0.650129 156 88 104
-0.142375 0.580297 -5.57891 -0.605136 -0.522937 0.600289 157 84 99
-0.147217 0.550328 -5.57983 -0.560781 -0.424558 0.710827 161 124 139
-0.114675 0.548242 -5.57891 -0.605136 -0.522937 0.600289 218 192 206
0.576687 0.340724 -5.789 0.378508 -0.481478 0.790513 189 25 42
0.621309 0.340724 -5.81036 0.378508 -0.481478 0.790513 189 25 42
0.667892 0.352064 -5.81856 0.48845 -0.499643 0.715383 183 23 38
0.698865 0.332059 -5.84235 -0.0343944 -0.641742 0.766149 185 22 38
1.07629 -0.35385 -5.5717 -0.346919 -0.029056 0.937445 221 157 170
2.42157 -0.305318 -6.24535 -0.5613 0.292473 0.77421 218 186 55
2.52991 -0.807645 -5.94003 -0.87764 -0.0383712 0.477783 218 190 63
2.54853 -0.885391 -5.89743 -0.889229 -0.260876 0.375786 218 192 61
2.55093 -0.887092 -5.89755 -0.9097 0.0870829 0.406033 218 192 61
-5.48914 9.88905 -9.41755 0.541206 -0.661984 0.51853 6 6 5
-5.48108 10.0898 -9.52339 -0.0141943 -0.47662 0.878995 8 8 9
-5.47452 10.0697 -9.51355 -0.0152011 -0.476269 0.879168 8 8 9
-5.41439 9.98868 -9.5771 -0.0141947 -0.47662 0.878995 35 33 44
-5.32205 10.0609 -9.56527 0.283475 -0.56953 0.771542 25 23 33
-5.19951 9.95903 -9.57276 0.0160346 -0.568883 0.822262 18 18 23
-5.01347 9.53453 -9.44652 0.360873 -0.492119 0.792206 6 7 9
-0.256279 0.0762815 -5.25584 0.800011 -0.594162 0.0833837 52 23 22
-0.116262 0.517468 -5.6244 -0.570168 -0.658044 0.491819 195 174 189
0.455828 0.355177 -5.77824 0.0146915 -0.837014 0.546985 185 24 41
0.552657 0.252425 -5.77232 0.417268 -0.300731 0.857583 199 30 50
0.986095 -0.431341 -5.52847 -0.746035 -0.118495 0.655279 210 148 162
1.05837 -0.384228 -5.57151 -0.120485 0.0579228 0.991024 218 153 167
1.25989 -0.58483 -5.51625 -0.288824 -0.826602 0.483022 170 114 119
1.98851 0.401669 -6.54459 0.144987 -0.228055 0.962793 118 67 50
2.42572 -0.335576 -6.26344 -0.570447 0.301492 0.763998 213 180 52
2.51072 -0.833632 -5.97868 -0.87765 -0.0384932 0.477755 194 166 42
2.53207 -0.857241 -5.94003 -0.87764 -0.0383713 0.477783 213 186 58
2.54876 -0.939 -5.90523 -0.909696 0.087127 0.406032 218 193 59
-5.61119 9.96082 -9.49879 0.300941 -0.887904 0.347939 5 6 4
-5.3133 9.94549 -9.62044 0.162058 -0.59559 0.786772 47 45 57
-5.19495 9.76247 -9.62246 0.415766 -0.236086 0.878295 18 18 25
-5.19788 9.77118 -9.62707 0.477818 -0.366502 0.798352 18 18 25
-5.19788 9.77118 -9.62707 0.477818 -0.366502 0.798352 18 18 25
-1.1074 0.10586 -4.89426 -0.580074 -0.215751 0.785471 212 157 171
-0.147777 0.517733 -5.66059 -0.570168 -0.658044 0.491819 103 76 92
-0.111514 0.486312 -5.66059 -0.570168 -0.658044 0.491819 206 186 200
-0.00616871 0.419217 -5.65883 -0.40335 0.0506507 0.913643 188 101 121
0.197253 0.352238 -5.71362 -0.151415 -0.825025 0.544433 197 30 51
0.22605 0.254278 -5.67711 0.144694 -0.75547 0.639006 190 29 47
0.21821 0.250139 -5.66949 0.511628 -0.801229 0.310272 191 29 48
0.408129 0.199098 -5.72363 -0.067081 -0.81407 0.57688 201 33 51
0.900401 -0.243743 -5.64499 -0.653665 0.00982471 0.75672 191 73 93
2.3241 -0.2067 -6.35645 -0.711193 0.0620287 0.700255 216 182 58
2.34507 -0.274667 -6.3291 -0.711193 0.0620281 0.700255 207 173 56
2.47414 -0.763113 -6.05799 -0.951718 0.00508943 0.306931 223 192 62
2.53472 -0.911655 -5.94945 -0.869712 -0.202219 0.450231 219 191 60
2.53211 -0.964623 -5.9532 -0.878343 0.0120952 0.477879 218 190 62
-5.55034 9.77029 -9.5023 0.293933 -0.896762 0.33079 6 6 6
-5.46137 9.77385 -9.55198 0.134724 -0.918508 0.371743 25 23 30
-5.38432 9.82656 -9.62558 0.708119 -0.6802 0.189459 56 54 69
-5.28284 9.78821 -9.64638 0.355548 -0.663533 0.658262 53 51 63
-5.17754 9.58693 -9.64473 -0.299028 -0.496251 0.815057 12 12 18
-4.67736 9.386 -9.72068 0.514928 -0.60917 0.603127 101 79 77
-1.32162 0.262255 -4.96393 -0.323938 -0.0945693 0.94134 226 167 179
-0.0387878 0.305762 -5.61508 -0.247707 -0.70498 0.664563 214 155 171
-0.0244074 0.359139 -5.66205 0.39254 -0.0767017 0.916531 213 137 155
-0.00704201 0.324097 -5.66211 0.392324 -0.081172 0.916239 166 65 85
0.0123192 0.358392 -5.66737 0.392324 -0.081172 0.916239 196 51 80
0.0966457 0.287255 -5.64534 -0.543943 0.0216974 0.838842 191 28 49
0.121292 0.262048 -5.65464 -0.0826823 -0.766257 0.637193 157 25 42
0.250453 0.238097 -5.68458 0.0379111 -0.617473 0.785678 175 23 41
0.81824 0.0540956 -5.86641 -0.334054 -0.892403 0.303356 226 169 186
0.899798 -0.283897 -5.645 -0.653665 0.00982451 0.75672 209 100 118
2.30804 0.0909427 -6.60282 -0.275953 -0.481584 0.831822 215 180 61
2.29621 0.065027 -6.57763 -0.293473 -0.242645 0.924661 215 180 59
2.31926 -0.250855 -6.35477 -0.628562 0.138623 0.765306 215 180 59
2.51357 -0.92073 -5.99864 -0.746811 -0.17985 0.640256 216 188 61
2.52028 -0.96357 -5.99318 -0.849043 -0.064481 0.524374 219 190 67
-5.55034 9.73431 -9.59983 0.293934 -0.896761 0.33079 8 8 10
-5.45276 9.72237 -9.64566 0.225092 -0.95057 0.213892 46 45 52
-5.36259 9.73098 -9.70238 0.225091 -0.950571 0.213892 39 38 47
-5.26544 9.66644 -9.6934 0.504859 -0.167581 0.846779 36 36 43
-5.12952 9.36895 -9.65498 -0.193051 -0.727536 0.658348 8 7 11
-1.37249 0.247995 -4.99193 0.159338 -0.437401 0.885037 227 177 192
-1.35526 0.279405 -4.9871 -0.176359 -0.212037 0.961217 230 174 188
0.344155 0.186108 -5.76056 0.153064 -0.572628 0.8054 190 71 97
0.81824 0.0405857 -5.90615 -0.334054 -0.892403 0.303356 234 205 218
2.27246 0.0213644 -6.59086 -0.639648 -0.0103445 0.768598 215 179 59
2.48385 -0.904593 -6.02878 -0.74681 -0.179851 0.640256 207 178 53
2.48245 -0.914759 -6.04671 -0.867407 0.0065685 0.497557 211 182 59
2.49446 -0.948628 -6.02878 -0.74681 -0.179851 0.640256 191 162 43
-5.55034 9.69834 -9.69737 0.293933 -0.896762 0.33079 8 8 9
-5.45277 9.69893 -9.74994 0.225091 -0.950571 0.213892 12 11 15
-5.40674 9.54596 -9.78349 0.587094 -0.652873 0.478622 27 13 16
-5.26989 9.4756 -9.77385 -0.020002 -0.794866 0.606456 11 9 12
-5.04334 9.03412 -9.58687 -0.125899 -0.208148 0.969961 18 17 22
0.558497 0.106405 -5.86792 0.0979965 -0.620391 0.778146 177 67 90
0.558678 0.105881 -5.86756 0.127252 -0.612715 0.779991 177 67 90
0.610716 0.0964655 -5.88049 -0.112621 -0.661758 0.741211 181 70 93
0.833192 -0.388365 -5.67098 -0.655845 0.0748996 0.75117 198 31 53
2.1786 0.00820662 -6.60901 -0.58477 -0.0883184 0.806377 196 145 97
2.23313 0.0266753 -6.61187 -0.298039 -0.240556 0.923746 198 156 64
2.46264 -0.889824 -6.08745 -0.867603 0.00400818 0.497241 216 187 61
2.48152 -0.965304 -6.05415 -0.864222 0.0144627 0.502903 202 172 54
2.50499 -0.992382 -6.02878 -0.746811 -0.179851 0.640256 211 183 62
-5.49443 9.36039 -9.66969 0.144724 -0.458606 0.876776 25 11 11
-5.40487 9.43719 -9.73921 0.425825 -0.124412 0.896211 33 15 19
-5.32297 9.26695 -9.74687 0.144728 -0.458607 0.876774 43 15 18
-5.12919 8.97974 -9.61046 0.198278 -0.223738 0.954268 16 10 12
-5.04133 9.03446 -9.59712 -0.352699 -0.308924 0.883272 21 20 26
-4.99001 8.81641 -9.58103 0.0981628 -0.534647 0.839355 34 33 43
-1.30347 0.170187 -5.06361 0.0889731 -0.601978 0.793541 228 170 185
2.45948 -0.939556 -6.08309 -0.867392 0.006731 0.49758 220 192 65
2.45536 -0.984627 -6.08597 -0.773663 0.103342 0.625112 215 186 64
2.4889 -1.01705 -6.08221 -0.769466 0.109398 0.629248 206 177 55
-5.44239 9.26695 -9.72715 0.144724 -0.458606 0.876776 65 27 33
-5.31711 8.9432 -9.63378 0.288988 -0.263055 0.920482 71 30 36
-5.10761 8.68013 -9.53934 0.491341 -0.197075 0.848378 33 12 13
-5.18915 8.9432 -9.67395 0.288989 -0.263055 0.920482 31 10 12
-5.11251 8.93726 -9.61115 -0.323365 -0.647615 0.689949 14 8 11
-1.40702 0.177981 -5.04248 0.294982 -0.00718953 0.955476 93 64 81
-1.30526 0.10158 -5.04461 -0.4675 -0.65929 0.588881 231 174 186
0.807291 -0.417687 -5.68863 -0.644289 -0.0837448 0.760183 187 28 45
1.01835 -0.59162 -5.66633 -0.792486 0.0223157 0.609481 160 107 120
2.13052 -0.324275 -6.44095 -0.759314 0.231514 0.608148 187 134 130
2.13372 -0.317802 -6.44734 -0.759028 0.194798 0.621232 187 134 129
2.47683 -1.0662 -6.07647 -0.823734 0.216436 0.524039 205 178 53
2.51241 -1.10063 -6.07537 -0.753922 0.220291 0.61893 217 191 66
-5.5262 9.21277 -9.79084 0.153124 -0.44881 0.88041 55 13 16
-5.26228 8.83114 -9.68302 0.288988 -0.263055 0.920482 50 13 16
-5.24671 8.86911 -9.72682 0.585119 -0.358106 0.727596 42 12 14
-5.06007 8.56386 -9.59388 0.491341 -0.197074 0.848379 15 6 8
-4.98914 8.68014 -9.60796 0.491341 -0.197075 0.848378 40 38 47
-4.40048 9.1641 -10.3085 0.489361 -0.48285 0.726211 11 23 53
-1.18646 -0.00265582 -5.06463 -0.484101 -0.234914 0.842889 236 165 178
-0.266138 0.250103 -5.70455 0.284815 -0.54622 0.787733 93 25 35
-0.231863 0.238942 -5.72468 0.284816 -0.54622 0.787733 79 4 7
0.724291 0.0198989 -6.0292 -0.226625 -0.748047 0.623753 183 26 43
2.13611 -0.355912 -6.46422 -0.619553 0.289071 0.729789 186 130 141
2.1341 -0.360505 -6.45922 -0.619533 0.289069 0.729807 186 130 141
2.46144 -1.03588 -6.11251 -0.769466 0.109398 0.629248 215 186 60
-5.44042 9.03544 -9.79212 0.354651 -0.32305 0.877418 72 31 33
-5.44989 9.0654 -9.80762 0.516959 -0.232268 0.823896 72 31 33
-5.38431 8.8531 -9.76856 -0.290489 -0.760429 0.58083 56 18 20
-5.22806 8.67717 -9.71464 -0.440408 -0.576534 0.688222 41 12 16
0.692702 -0.0536542 -6.02741 -0.097798 -0.448247 0.888544 157 19 29
2.43437 -1.05488 -6.14353 -0.769626 -0.138314 0.623334 215 187 60
2.45452 -1.04219 -6.18264 -0.934218 0.0185184 0.35622 208 180 56
2.45509 -1.08051 -6.11251 -0.769466 0.109398 0.629249 218 190 63
2.48301 -1.11544 -6.10593 -0.753922 0.220291 0.61893 198 170 47
2.47041 -1.15857 -6.10592 -0.753922 0.220291 0.61893 201 180 67
-5.48506 8.84051 -9.83544 -0.290489 -0.76043 0.58083 74 46 52
-5.12463 8.61042 -9.73258 -0.440219 -0.575275 0.689396 14 9 16
-1.44232 0.0625724 -5.08049 0.619465 -0.220673 0.75337 115 95 112
-1.32275 0.0185625 -5.0909 -0.262145 -0.733328 0.627304 226 165 178
0.285883 0.0856231 -5.98022 -0.201003 -0.972691 0.116059 203 33 54
0.650767 -0.0536541 -6.03202 -0.0977974 -0.448247 0.888544 169 22 36
2.33226 -0.611914 -6.5052 -0.533053 -0.806871 0.254587 204 179 68
2.43264 -1.09943 -6.15842 -0.945683 0.103703 0.308107 218 191 63
2.45359 -1.13025 -6.1365 -0.753922 0.22029 0.61893 217 190 65
-5.38941 8.79377 -9.87419 -0.289528 -0.759147 0.582983 73 54 63
-5.22806 8.56679 -9.8071 -0.440408 -0.576534 0.688222 27 20 25
-5.06236 8.33 -9.73243 -0.148979 -0.716187 0.681822 44 43 48
0.632162 -0.0853418 -6.05006 -0.0977974 -0.448247 0.888544 157 16 29
1.88174 -0.198246 -6.62099 0.164484 -0.449332 0.878092 162 106 112
1.86795 -0.268792 -6.59003 0.229246 -0.663763 0.711944 172 114 124
2.41754 -1.14465 -6.16125 -0.783484 0.147636 0.60362 218 192 62
2.41944 -1.14241 -6.15723 -0.820276 0.106854 0.561899 218 192 62
2.43767 -1.1722 -6.13119 -0.783405 0.14837 0.603543 205 185 67
2.4308 -1.21839 -6.13404 -0.783477 0.1461 0.604002 187 171 57
-5.48364 8.76251 -9.93045 -0.290483 -0.760432 0.580829 61 54 69
-5.38246 8.70104 -9.96033 -0.290483 -0.760432 0.580829 53 49 62
-5.13028 8.2298 -9.74373 -0.23811 -0.702733 0.670426 10 8 13
-0.473199 -0.291692 -5.41899 0.138733 -0.706525 0.693957 62 39 35
0.613619 -0.48162 -5.80678 -0.626664 -0.639259 0.445692 170 24 36
1.93829 -0.373975 -6.55132 -0.466798 -0.219114 0.85679 186 127 142
2.4112 -1.19121 -6.16612 -0.783477 0.1461 0.604002 216 192 64
2.42455 -1.26546 -6.13895 -0.801087 0.0299997 0.597795 214 191 67
-5.37794 8.36212 -9.89193 0.0456261 -0.119144 0.991828 67 61 76
-5.21626 8.36212 -9.89937 0.0456267 -0.119144 0.991828 13 11 17
-1.42257 -0.0214569 -5.15102 -0.656235 -0.309624 0.688106 218 171 187
-0.477404 -0.335911 -5.40474 -0.0986983 -0.436023 0.894507 91 69 61
0.571868 -0.133629 -6.13238 -0.794101 -0.567662 0.217171 132 12 20
2.3613 -1.02884 -6.32722 -0.735009 0.236185 0.635593 213 184 57
2.3982 -1.16801 -6.21275 -0.8178 0.079641 0.569965 219 191 61
2.38502 -1.21074 -6.20234 -0.803451 0.211468 0.55655 221 196 62
2.4027 -1.23677 -6.16612 -0.783477 0.1461 0.604002 217 192 64
-5.09127 8.0438 -9.80119 0.130366 -0.973467 0.188062 41 42 49
-1.25654 -0.176987 -5.16528 -0.217003 -0.619705 0.754238 231 171 183
-0.475003 -0.376751 -5.42321 -0.67038 -0.444919 0.593833 49 34 28
2.39719 -1.28435 -6.17275 -0.782908 0.145503 0.604883 218 192 61
-5.2386 7.9313 -9.85231 0.266744 -0.900105 0.344469 26 23 31
-5.15845 7.96925 -9.81521 0.266744 -0.900105 0.344469 29 28 36
-5.14934 7.91183 -9.89088 0.259802 -0.898596 0.353594 15 15 19
-5.07646 7.89674 -9.91497 0.207538 -0.412428 0.887035 7 8 11
0.249997 0.0351569 -6.19577 0.0368085 0.0562114 0.99774 191 31 49
2.34997 -1.04285 -6.38543 -0.90847 0.0183413 0.417548 219 191 60
-5.3339 7.94357 -9.91643 0.487891 -0.46319 0.739877 62 56 70
-5.2386 7.89683 -9.94238 0.266744 -0.900105 0.344468 8 6 10
-5.21178 7.85571 -9.91909 -0.189188 -0.235225 0.95335 7 6 9
-5.02945 7.85393 -9.98655 -0.126174 -0.159515 0.979099 7 8 8
0.0547117 0.0626428 -6.14367 -0.0975793 -0.91816 0.384007 213 38 65
0.146895 -0.0046175 -6.14972 0.255197 0.0482771 0.965683 196 30 49
0.179709 -0.00578725 -6.16499 0.218416 0.0794672 0.972615 196 30 50
0.213884 0.00186584 -6.19093 0.152526 0.132144 0.979425 197 31 51
0.250375 -0.0594145 -6.18831 0.152526 0.132151 0.979424 197 30 49
0.601556 -0.548068 -5.93864 -0.600618 -0.7483 0.281612 171 23 36
1.46196 -0.181648 -6.69568 0.585405 -0.750268 0.307245 74 28 30
-5.31461 7.84577 -9.96696 0.36984 -0.796349 0.478589 32 27 38
-5.21996 7.81443 -10.0018 0.247936 -0.919391 0.305364 6 5 6
-5.13033 7.72638 -9.93483 -0.189188 -0.235225 0.95335 7 7 6
-5.10467 7.88808 -10.0594 0.0938657 -0.722672 0.684788 7 7 5
0.0376912 -0.0321336 -6.11686 -0.40675 0.139619 0.902808 201 31 52
0.143775 -0.0806312 -6.14757 0.480161 -0.227993 0.847033 200 31 52
0.175927 -0.125195 -6.13729 0.172585 0.0194492 0.984803 196 32 51
-5.29466 7.76503 -10.0321 0.0431163 -0.953873 0.297099 9 6 12
-5.21142 7.76295 -10.0753 -0.12723 -0.974567 0.184477 7 6 5
-1.47918 -0.123161 -5.31408 -0.292868 -0.561789 0.773706 114 92 104
-1.47918 -0.123167 -5.31412 -0.250328 -0.567046 0.784725 114 92 104
1.80576 -0.517055 -6.72504 -0.438061 -0.824319 0.35861 180 121 135
2.30757 -1.12985 -6.45513 -0.816672 -0.0228462 0.57665 217 190 57
-5.38318 7.74623 -10.0798 0.0431177 -0.953873 0.297098 41 35 44
-5.29492 7.73496 -10.1299 0.0431179 -0.953873 0.297097 9 7 9
-5.19374 7.6816 -10.1574 -0.14139 -0.956377 0.25564 13 12 18
-1.3371 -0.230694 -5.33996 -0.358977 -0.0506836 0.931969 217 162 175
2.28449 -1.15429 -6.48879 -0.816672 -0.022846 0.57665 218 190 58
2.28844 -1.15366 -6.49168 -0.873274 -0.0358714 0.485907 218 190 58
2.30891 -1.1774 -6.45513 -0.816672 -0.0228463 0.57665 215 186 55
-5.37182 7.68779 -10.1589 -0.025149 -0.952103 0.304741 22 18 26
-5.21642 7.67305 -10.2573 0.0658298 -0.571956 0.817639 99 95 115
-4.37737 7.55524 -10.5226 0.694539 -0.719184 0.0197434 7 6 6
-1.5215 -0.131562 -5.38813 -0.329525 -0.269131 0.904976 74 64 68
1.94197 -0.690939 -6.7699 -0.649987 0.236297 0.722275 186 124 137
2.28606 -1.20182 -6.48935 -0.81664 -0.0225954 0.576705 216 191 60
2.31787 -1.2319 -6.46069 -0.725886 0.124854 0.676388 215 186 56
2.30913 -1.2765 -6.4589 -0.725884 0.124854 0.67639 214 186 58
-5.40282 7.67868 -10.2523 0.0463478 -0.462565 0.885373 89 82 102
-5.31465 7.64967 -10.2936 0.0985096 -0.501052 0.859792 103 97 122
-5.21269 7.58408 -10.3089 0.431317 -0.136661 0.89179 92 84 108
-1.51653 -0.194667 -5.38004 -0.142684 -0.615276 0.775292 41 14 11
2.23847 -1.15536 -6.56048 -0.818449 -0.0219747 0.574159 215 190 63
2.26144 -1.1785 -6.5233 -0.81664 -0.0225954 0.576705 213 190 67
2.26329 -1.22667 -6.52424 -0.81665 -0.022559 0.576692 197 179 78
2.28767 -1.2499 -6.48986 -0.725933 0.124518 0.676399 211 190 71
2.30361 -1.32232 -6.46322 -0.728866 0.123527 0.67342 211 184 60
2.32655 -1.34987 -6.43336 -0.728865 0.123526 0.673422 211 184 55
-5.41712 7.6246 -10.3228 0.107954 -0.877211 0.467811 67 61 78
-5.32207 7.59789 -10.3653 0.0584284 -0.955095 0.290483 71 63 82
-1.50395 -0.22737 -5.41606 -0.104731 -0.257922 0.960473 41 15 12
-1.47081 -0.226206 -5.41335 -0.0904579 -0.242416 0.965946 44 15 17
-1.47041 -0.227056 -5.41268 -0.103205 -0.261435 0.959688 44 15 17
-1.30522 -0.333608 -5.43261 -0.234823 -0.752382 0.615451 190 143 160
2.21499 -1.18028 -6.59491 -0.818449 -0.0219747 0.574159 207 186 73
2.23977 -1.2039 -6.56048 -0.818449 -0.0219747 0.574159 188 172 80
2.26462 -1.27494 -6.52424 -0.81665 -0.0225597 0.576692 182 166 74
2.27557 -1.29311 -6.48208 -0.728177 0.124582 0.673971 200 183 80
2.26792 -1.3378 -6.48208 -0.728177 0.124582 0.673972 204 184 77
2.30131 -1.36928 -6.47306 -0.652836 -0.112341 0.749123 211 185 56
-5.41144 7.57858 -10.4135 0.0584324 -0.955094 0.290484 62 55 72
-5.26024 7.46947 -10.4345 -0.17646 -0.829624 0.529703 69 59 76
-5.32843 7.58706 -10.474 0.0582164 -0.955219 0.290116 69 60 76
-1.47115 -0.268874 -5.44079 -0.146976 -0.317792 0.9367 33 13 12
-0.207373 0.201044 -6.5246 -0.814686 -0.214887 0.538619 6 5 7
2.21629 -1.22881 -6.59491 -0.818449 -0.0219742 0.574158 200 185 90
2.23685 -1.25073 -6.55281 -0.84258 0.188011 0.504689 203 184 80
2.26199 -1.32168 -6.51712 -0.671987 -0.114694 0.731628 182 167 76
2.26032 -1.38222 -6.48208 -0.728177 0.124582 0.673972 208 184 63
2.3089 -1.4134 -6.47306 -0.652836 -0.112341 0.749122 211 185 59
-5.50103 7.55986 -10.4619 0.0585179 -0.954984 0.290827 64 58 73
-5.40944 7.54289 -10.5096 0.0583298 -0.955125 0.290403 61 52 69
-1.42514 -0.277528 -5.48946 -0.457337 -0.244659 0.854977 47 27 27
-1.28669 -0.512333 -5.37889 0.5971 -0.228957 0.768798 110 84 90
-1.30793 -0.351644 -5.50365 -0.060105 -0.811075 0.581847 155 122 133
-1.19886 -0.378193 -5.51763 0.0645278 -0.751133 0.65699 176 135 153
-0.162667 -0.0682364 -6.37724 -0.787725 -0.577963 0.213184 12 11 13
-0.133491 -0.0715651 -6.41069 -0.798657 -0.557741 0.225989 11 11 11
0.078904 -0.182382 -6.39442 -0.120669 -0.966278 0.227479 22 11 12
2.16836 -1.1825 -6.67064 -0.77532 -0.137744 0.616364 209 183 56
2.19142 -1.20529 -6.62947 -0.818449 -0.0219747 0.574159 200 180 74
-5.48652 7.49515 -10.5369 0.129792 -0.923646 0.360599 62 55 71
-5.43425 7.58228 -10.6449 -0.130964 -0.971379 0.198168 61 52 68
-1.40389 -0.285968 -5.54807 -0.345091 -0.801538 0.488313 49 24 21
-1.289 -0.411032 -5.52511 0.288415 -0.022548 0.95724 96 71 74
-1.28495 -0.465398 -5.47943 0.578429 -0.233123 0.781712 87 66 69
-1.25649 -0.411036 -5.53494 0.288435 -0.022544 0.957234 106 78 85
2.16848 -1.02538 -6.85617 -0.555748 -0.310565 0.771164 221 192 62
2.19403 -1.25506 -6.63357 -0.824551 -0.0328161 0.564835 194 180 89
2.28634 -1.44182 -6.50379 -0.660633 -0.117752 0.741416 210 182 60
-5.402 7.48696 -10.6949 0.0583305 -0.955125 0.290403 60 52 65
-1.24042 -0.440435 -5.54047 0.288435 -0.022544 0.957234 95 72 75
-0.975627 -0.520234 -5.65357 -0.184742 -0.784204 0.592363 64 40 46
-5.37707 7.38977 -10.7479 0.0591873 -0.955006 0.29062 59 51 66
-4.7924 7.83878 -11.5826 -0.540986 -0.669134 0.509504 47 43 55
-1.27345 -0.444485 -5.56751 -0.00204797 -0.670961 0.74149 67 51 57
-1.20931 -0.49039 -5.59519 0.139802 -0.704038 0.696266 42 19 17
-1.20931 -0.49039 -5.59519 0.139802 -0.704038 0.696266 42 19 17
-1.20931 -0.49039 -5.59519 0.139802 -0.704038 0.696266 55 35 37
-1.16438 -0.487164 -5.63031 0.112648 -0.489065 0.864943 76 55 54
-4.484 7.12353 -11.1959 -0.490423 -0.552866 0.673665 32 37 56
-1.19147 -0.480067 -5.63624 0.0971821 -0.696358 0.711085 79 59 60
2.14308 -1.4154 -6.64818 -0.456167 0.364683 0.811737 209 187 62
0.546096 -0.47305 -6.71324 -0.248417 -0.963769 0.0971477 43 28 25
0.577726 -0.575332 -6.59418 -0.690119 -0.675234 0.260375 49 21 20
-4.58695 7.10752 -11.2839 -0.490423 -0.552866 0.673665 70 68 88
-3.79951 6.25102 -10.9161 0.120792 -0.92942 0.348695 20 20 20
0.61781 -0.533402 -6.71356 -0.622826 -0.707103 0.334803 40 19 16
0.636981 -0.494031 -6.81593 -0.0393968 -0.998592 -0.0355139 40 25 19
0.648845 -0.560738 -6.71356 -0.622826 -0.707103 0.334803 44 21 16
0.373249 3.37009 -10.6332 -0.689601 -0.719936 0.0783777 16 14 15
1.98609 -0.922565 -7.22299 -0.942546 -0.13559 0.305322 204 178 51
2.00415 -0.947365 -7.17827 -0.942547 -0.13559 0.305322 203 176 57
1.93918 -0.985308 -7.23645 -0.283334 0.419467 0.86242 202 177 57
2.06184 -1.32989 -6.95182 -0.891879 0.0770459 0.445663 206 181 60
2.10659 -1.47603 -6.83128 -0.910934 0.134797 0.38991 205 179 56
-1.01868 3.77383 -10.6394 -0.310068 -0.895661 0.318824 30 16 14
-0.895068 3.73908 -10.6283 -0.310416 -0.895487 0.318975 40 18 15
-0.209551 2.90666 -10.2185 0.507616 0.167403 0.845164 11 10 9
-0.1216 2.84419 -10.2125 0.640915 -0.309446 0.702475 24 19 18
-0.0744579 2.94559 -10.2907 0.734731 -0.374184 0.565824 16 15 13
-0.95907 3.46674 -10.492 -0.0331355 0.226068 0.973548 38 17 13
-0.338202 2.89046 -10.184 0.620743 -0.0475369 0.782572 13 9 10
-0.0421466 2.69646 -10.1645 -0.285592 -0.300467 0.910031 13 11 10
1.89978 -1.04903 -7.30639 -0.847336 0.0657562 0.526971 204 179 58
-4.06146 6.0568 -11.4488 -0.545148 -0.417821 0.7268 6 6 6
-1.03989 3.27921 -10.2754 -0.607797 -0.000663941 0.794092 44 20 13
1.20774 0.696146 -8.88101 -0.771407 -0.110884 0.626606 42 33 35
1.45614 0.0866552 -8.32299 -0.891946 -0.247831 0.37817 79 61 15
2.17931 -1.59683 -6.9482 -0.855895 0.272635 0.439446 177 157 61
2.19561 -1.64257 -6.88808 -0.855895 0.272635 0.439446 173 151 62
-1.10432 3.23226 -10.3247 -0.607797 -0.000663941 0.794092 48 20 11
-1.14108 3.11292 -10.1457 -0.511938 -0.0033212 0.859016 53 23 12
-1.14128 3.11345 -10.1474 -0.597856 -0.0142884 0.801476 53 23 12
-1.03979 3.18545 -10.2754 -0.607797 -0.000663986 0.794092 39 19 13
-0.152773 2.56931 -10.2016 -0.14583 0.0313471 0.988813 18 15 14
-0.0914688 2.57947 -10.2025 0.0434203 0.279271 0.95923 13 11 10
0.0295686 2.46728 -10.1773 -0.16181 -0.0319476 0.986305 12 10 9
-0.0304032 2.468 -10.1902 -0.161417 -0.031147 0.986395 19 15 15
1.89775 -1.19838 -7.30278 -0.757802 -0.198946 0.621415 189 166 48
1.94588 -1.34636 -7.15876 -0.891284 0.0835674 0.445679 198 174 50
1.95179 -1.33827 -7.17477 -0.935707 0.0129009 0.352542 191 167 48
2.15011 -1.67049 -6.93364 -0.846413 0.263989 0.462487 125 105 45
2.16725 -1.71429 -6.87728 -0.846413 0.263989 0.462487 87 68 29
-3.83762 4.90856 -10.6572 -0.424502 -0.266762 0.865238 7 6 6
-1.17984 3.30597 -10.4592 -0.612336 -0.00590101 0.790575 55 22 13
-1.19194 3.68976 -10.9225 -0.218823 0.00764778 0.975735 57 23 13
-0.279036 2.45093 -10.1238 -0.102729 -0.217326 0.970678 24 19 17
-0.245886 2.51153 -10.2039 -0.070976 0.0378099 0.996761 20 15 15
-0.188097 2.39947 -10.1178 -0.102748 -0.217287 0.970685 32 23 22
-0.215898 2.45158 -10.1446 -0.152206 -0.0926491 0.983997 25 20 18
-0.18367 2.51153 -10.1994 -0.0709767 0.0378099 0.996761 24 19 18
-0.186533 2.49749 -10.1753 -0.0102551 0.161683 0.986789 22 17 16
-0.122314 2.52016 -10.202 -0.148116 0.0283773 0.988563 26 23 22
-0.121772 2.50817 -10.1889 -0.0147068 0.151682 0.98832 27 23 22
-0.0644931 2.40669 -10.1605 -0.160896 -0.0307994 0.986491 26 20 20
-0.0341801 2.35361 -10.1557 -0.170235 -0.0430996 0.98446 23 19 18
-0.00306763 2.40916 -10.1614 -0.1613 -0.0317971 0.986393 18 15 15
0.195296 2.50351 -10.3804 0.681105 -0.111489 0.723648 13 12 12
0.241272 2.44517 -10.3968 0.601499 -0.183961 0.777404 12 11 11
0.311787 2.47027 -10.4454 0.601499 -0.183961 0.777404 11 10 10
0.277838 2.53273 -10.4683 0.306638 -0.591691 0.74557 11 10 11
1.89995 -1.30041 -7.2307 -0.751216 0.0779176 0.655441 197 173 53
1.89869 -1.29418 -7.24435 -0.722791 -0.0896664 0.685224 195 171 52
1.92975 -1.31248 -7.2122 -0.907555 0.0596156 0.41568 191 168 49
1.93764 -1.36039 -7.20652 -0.936421 0.00775215 0.350792 206 181 53
1.97757 -1.43294 -7.14677 -0.933677 0.0317132 0.356709 182 159 49
2.1318 -1.63203 -6.98057 -0.832681 0.258606 0.489658 154 132 56
2.13834 -1.69151 -6.9367 -0.816106 0.1967 0.543397 87 69 27
-1.17251 3.32208 -10.5781 -0.119613 0.15701 0.980327 47 20 12
-1.23562 3.61246 -10.9317 -0.218823 0.00764778 0.975735 60 24 11
-0.446255 2.37509 -10.04 0.0434741 0.26171 0.964167 30 23 23
-0.36962 2.51171 -10.1659 -0.08922 0.220802 0.971229 20 16 14
-0.339283 2.45093 -10.1302 -0.102729 -0.217326 0.970678 27 21 20
-0.337766 2.4557 -10.1502 -0.0892191 0.220802 0.971229 27 22 20
-0.308966 2.39755 -10.1294 -0.100026 -0.218859 0.970616 31 24 22
-0.273488 2.4514 -10.1599 -0.119003 -0.193196 0.973917 27 22 20
-0.247649 2.39962 -10.132 -0.102739 -0.217329 0.970676 32 24 22
-0.246399 2.39887 -10.1177 -0.16821 -0.199523 0.965348 32 24 22
-0.153163 2.35314 -10.1542 -0.103233 -0.218737 0.970308 35 26 25
-0.184279 2.40655 -10.1573 -0.0994988 -0.215736 0.971369 33 24 23
-0.0596702 2.30879 -10.1978 -0.170266 -0.0416914 0.984516 22 19 18
0.0718667 2.36943 -10.3255 0.625991 -0.0292704 0.779281 16 14 14
0.179701 2.40824 -10.3804 0.681105 -0.111489 0.723648 15 13 13
0.285684 2.38492 -10.4454 0.601499 -0.183961 0.777404 13 11 11
0.361581 2.41086 -10.5249 0.689985 -0.249546 0.679446 11 11 11
1.88964 -1.25673 -7.30187 -0.904818 0.116239 0.409625 187 164 47
1.90076 -1.23931 -7.38284 -0.737824 0.0154922 0.674816 198 175 58
2.0519 -1.46284 -7.19565 -0.960339 -0.150299 0.23486 180 157 54
2.02762 -1.46756 -7.15048 -0.974447 -0.171184 0.14543 185 162 52
2.11688 -1.5666 -7.12782 -0.58436 -0.425964 0.690708 156 134 58
2.08334 -1.60919 -7.03052 -0.848047 0.234681 0.475123 162 141 61
2.10525 -1.70344 -6.97512 -0.832692 0.258552 0.489669 69 54 27
2.08476 -1.72404 -6.94477 -0.712186 0.0530973 0.69998 69 54 29
2.0902 -1.76122 -6.88639 -0.811669 0.0515927 0.581835 63 52 27
-0.734365 2.54898 -10.1438 0.0682085 -0.150584 0.986241 24 18 16
-0.644157 2.4996 -10.1672 0.0704215 -0.147788 0.986509 24 19 18
-0.537353 2.45077 -10.1476 -0.0869875 0.214234 0.972901 25 20 19
-0.469979 2.45531 -10.1608 -0.0896437 0.222106 0.970893 27 20 21
-0.44583 2.37636 -10.0455 0.0184097 0.257751 0.966036 30 23 23
-0.44583 2.37636 -10.0455 0.0184097 0.257751 0.966036 30 23 23
-0.403418 2.4568 -10.1609 -0.0899793 0.221823 0.970927 28 22 21
-0.369324 2.39755 -10.1356 -0.100026 -0.218859 0.970616 32 24 23
-0.337961 2.34626 -10.144 -0.100026 -0.218859 0.970616 37 29 27
-0.213607 2.354 -10.1659 -0.103172 -0.218515 0.970364 36 27 25
-0.274262 2.354 -10.1724 -0.103171 -0.218515 0.970364 37 28 27
-0.242714 2.30245 -10.1806 -0.103171 -0.218515 0.970364 40 31 30
-0.182254 2.30162 -10.1689 -0.103232 -0.218737 0.970308 37 29 28
-0.18206 2.30245 -10.1742 -0.103171 -0.218515 0.970364 37 29 28
-0.119672 2.30879 -10.2082 -0.170266 -0.0416914 0.984516 30 25 24
-0.0892761 2.25614 -10.2051 -0.170266 -0.0416914 0.984516 18 16 14
-0.0210923 2.27104 -10.2642 0.324722 -0.105053 0.939957 17 15 13
0.0113501 2.32882 -10.2784 0.625991 -0.0292702 0.779281 17 15 14
0.0445105 2.2742 -10.3019 0.325174 -0.104646 0.939846 18 17 15
0.113142 2.28214 -10.3301 0.597108 -0.0310931 0.801558 18 16 16
0.174705 2.32153 -10.3774 0.59765 -0.0315795 0.801135 14 13 14
1.89609 -1.24792 -7.43154 -0.942283 -0.272286 0.194841 184 160 48
1.88561 -1.29857 -7.31255 -0.378967 -0.361852 0.851732 192 168 53
2.03524 -1.51753 -7.20516 -0.808288 0.0975097 0.580657 170 150 56
2.08448 -1.56445 -7.15389 -0.58436 -0.425964 0.690708 148 128 58
2.0918 -1.62092 -7.1013 -0.798402 -0.0660514 0.598492 91 71 31
2.09178 -1.65747 -7.03518 -0.832681 0.258606 0.489657 82 63 28
-0.504189 2.39928 -10.1511 -0.0896435 0.222105 0.970893 30 23 23
-0.30336 2.30333 -10.1927 -0.102935 -0.218864 0.970311 41 31 31
-0.364071 2.30672 -10.2181 -0.0812984 -0.238713 0.967681 43 32 32
-0.271444 2.25314 -10.2109 -0.100911 -0.220406 0.970174 38 31 31
-0.208369 2.25691 -10.2175 -0.0791916 -0.472452 0.877791 33 28 27
-0.210092 2.25524 -10.2183 0.058835 -0.66424 0.745201 33 28 27
0.0107301 2.21628 -10.297 0.325175 -0.104643 0.939846 20 17 16
0.0743161 2.21622 -10.3186 0.338874 -0.167687 0.925768 21 17 17
1.73144 -0.987501 -7.68431 -0.910634 0.0552344 0.409506 185 161 51
1.86396 -1.3069 -7.37092 -0.644731 -0.244684 0.72419 189 165 51
2.05197 -1.5623 -7.18003 -0.58436 -0.425964 0.690708 138 119 54
2.07076 -1.60392 -7.16192 -0.654381 -0.099225 0.749626 81 63 29
-1.54982 3.70003 -11.1098 -0.464161 -0.844438 0.267356 76 39 15
-1.36748 3.50732 -11.0456 -0.226492 -0.697772 0.679571 65 29 12
-0.395462 2.25472 -10.213 -0.141411 -0.261458 0.9548 34 28 27
-0.332251 2.25481 -10.2283 -0.0812804 -0.238706 0.967684 39 31 31
-0.300696 2.20165 -10.2282 0.133866 -0.457405 0.879125 30 26 25
-0.237085 2.20939 -10.2457 -0.0791912 -0.472452 0.877791 24 21 21
0.804875 1.14632 -9.68023 -0.131448 -0.0447135 0.990314 83 74 84
0.796572 1.10913 -9.55488 -0.890969 -0.120187 0.43787 78 67 77
2.00377 -1.47044 -7.33089 -0.922548 0.115122 0.368309 167 147 58
2.0014 -1.52367 -7.29861 -0.386951 -0.268814 0.882048 121 102 44
2.02705 -1.54778 -7.23546 -0.497438 -0.361986 0.788367 122 104 48
2.04138 -1.59502 -7.21595 -0.574694 -0.188383 0.796391 71 55 24
2.06384 -1.66785 -7.11901 -0.917584 -0.288773 0.273222 65 52 27
-1.48878 3.6118 -11.1688 -0.258049 -0.644062 0.720135 76 38 14
-0.456672 2.25474 -10.2248 -0.141218 -0.262137 0.954642 31 26 25
-0.423285 2.20281 -10.2417 -0.133735 -0.265718 0.95473 26 23 22
-0.342017 2.15253 -10.1843 0.640203 -0.364777 0.676075 27 23 24
-0.273985 2.15222 -10.2453 0.169765 -0.451868 0.875783 16 13 13
-0.203889 2.15818 -10.2642 -0.0791298 -0.47244 0.877803 16 14 13
1.97481 -1.49901 -7.36564 -0.756645 0.0546578 0.651538 119 100 44
2.0106 -1.57899 -7.26111 -0.166866 -0.43505 0.884809 71 56 26
2.05392 -1.6379 -7.21263 -0.754161 -0.488803 0.438534 65 54 26
-0.486605 2.20281 -10.2509 -0.133733 -0.265723 0.954729 26 23 23
-0.443587 1.94259 -10.0026 0.0640754 0.201521 0.977386 27 24 24
-0.0408451 1.97652 -10.3363 0.695289 -0.269442 0.666314 39 30 29
1.6919 -1.031 -7.79665 -0.9114 -0.0586428 0.407322 189 165 48
1.98347 -1.55702 -7.32014 -0.236795 -0.424327 0.873999 71 56 25
2.00387 -1.59744 -7.31454 -0.795667 -0.463606 0.389852 65 53 27
-1.88537 3.65352 -11.2749 -0.337921 -0.741157 0.580083 96 42 22
-1.85505 3.66545 -11.3473 0.0343556 -0.842971 0.536862 95 41 19
-1.66442 3.60393 -11.3179 -0.382684 -0.729484 0.566927 80 38 14
-1.66879 3.53322 -11.2552 -0.771138 -0.524571 0.360793 77 34 13
-1.61874 3.54265 -11.339 -0.441239 -0.708855 0.550302 73 32 12
-0.164047 1.82033 -10.1784 0.319569 0.120682 0.939847 38 27 26
1.52997 -0.612578 -8.2632 -0.495878 -0.394254 0.773737 179 155 46
1.96906 -1.51694 -7.42473 -0.878363 0.0797477 0.471295 72 55 27
-2.4184 3.80175 -11.2702 -0.266232 -0.762949 0.589091 42 22 24
-2.32495 3.78675 -11.2393 -0.490722 -0.598481 0.633256 99 85 99
-2.38798 3.82068 -11.2218 -0.241675 -0.631869 0.736434 44 20 21
-2.21133 3.75031 -11.3086 -0.27138 -0.722944 0.635378 126 122 142
-2.13946 3.70371 -11.3237 -0.27179 -0.723243 0.634862 22 21 29
-1.99275 3.65936 -11.3384 0.124853 -0.663459 0.737722 39 19 14
-1.92347 3.64054 -11.3752 0.0339743 -0.843463 0.536112 70 30 21
-1.85173 3.61638 -11.4053 0.0332168 -0.847241 0.530169 88 35 18
-1.77961 3.59088 -11.4159 0.0301595 -0.850371 0.525319 86 34 15
-1.72328 3.62725 -11.4029 0.00264293 -0.834166 0.551507 87 39 16
-1.72047 3.57052 -11.4522 0.163642 -0.669423 0.724634 83 34 15
-1.69163 3.55112 -11.4026 -0.437992 -0.71219 0.548588 75 30 13
-1.62104 3.49749 -11.4261 -0.439721 -0.709693 0.550437 71 30 13
-1.59668 3.52545 -11.4343 -0.276293 -0.673013 0.686088 71 31 13
-1.53585 3.48749 -11.463 0.0770402 -0.764809 0.639635 69 30 13
-1.48465 3.39757 -11.2857 -0.385987 -0.689534 0.612827 70 32 14
-1.39152 3.44251 -11.4973 -0.179292 -0.492231 0.8518 59 28 12
0.524478 1.14707 -9.8123 -0.574525 0.255585 0.777559 25 22 22
1.52761 -0.65873 -8.25881 -0.771401 -0.0167567 0.636129 180 155 48
1.53558 -0.872594 -8.06241 -0.620822 -0.147824 0.769888 192 168 51
1.68124 -1.11604 -7.84416 -0.937427 -0.122796 0.325811 185 161 50
-2.49303 3.83515 -11.3746 -0.408767 -0.771503 0.487537 50 22 24
-2.42073 3.75235 -11.3536 -0.26986 -0.760238 0.590943 121 107 124
-2.34896 3.76432 -11.3118 -0.227817 -0.820675 0.524016 126 117 135
-2.28245 3.73722 -11.3539 -0.27138 -0.722943 0.635378 122 117 137
-2.21133 3.69399 -11.3727 -0.271381 -0.722943 0.635379 39 38 47
-2.13781 3.64004 -11.3904 -0.407964 -0.72952 0.548968 18 16 19
-2.06051 3.63307 -11.3619 -0.240305 -0.423373 0.873504 17 17 18
-1.99128 3.61421 -11.3985 0.0335288 -0.847717 0.529388 25 13 13
-1.92188 3.59652 -11.4357 0.0335287 -0.847701 0.529414 54 22 14
-1.85093 3.57196 -11.4661 0.0333264 -0.847631 0.529538 86 34 17
-1.77875 3.544 -11.4916 0.0317634 -0.845739 0.53265 84 33 15
-1.64662 3.48971 -11.5006 -0.412619 -0.773103 0.481723 77 32 14
-1.39505 3.37995 -11.5247 0.0564191 -0.793509 0.605937 60 28 11
0.472463 1.05169 -9.76256 -0.605791 0.23557 0.75995 31 25 27
-2.56541 3.75461 -11.3369 -0.281073 -0.760472 0.585389 75 31 22
-2.4926 3.7399 -11.394 -0.271057 -0.759308 0.591591 106 80 92
-2.28245 3.68089 -11.418 -0.27138 -0.722943 0.635378 69 66 78
-2.21059 3.6348 -11.4434 -0.34955 -0.749341 0.562409 18 16 20
-2.06119 3.59177 -11.4324 0.0336324 -0.84771 0.529393 16 16 18
-1.99128 3.57154 -11.4668 0.0335285 -0.847717 0.529388 21 13 13
-1.92141 3.55235 -11.5032 0.0335284 -0.847713 0.529395 71 37 24
-1.84981 3.52801 -11.5328 0.0318451 -0.845731 0.532658 92 43 19
-1.72052 3.49182 -11.556 0.0330535 -0.777667 0.627806 82 35 15
-1.64668 3.4397 -11.5792 -0.412668 -0.773101 0.481685 78 32 13
-1.56796 3.47917 -11.5779 -0.397636 -0.787058 0.47162 67 27 11
-1.50489 3.39796 -11.5669 -0.326486 -0.786731 0.523891 63 28 12
-1.43079 3.36634 -11.6092 -0.32838 -0.786592 0.522914 70 32 11
-0.0470168 1.68121 -10.4027 0.696739 -0.190207 0.691647 69 48 50
0.145882 1.78008 -10.6523 0.71536 -0.32621 0.617938 52 38 41
0.209021 1.80749 -10.6833 0.661212 -0.266085 0.701425 53 38 40
0.280498 1.83008 -10.7421 0.661212 -0.266085 0.701425 53 39 42
-2.63914 3.76251 -11.407 -0.27213 -0.759896 0.590342 110 42 26
-2.56581 3.71914 -11.429 -0.272129 -0.759896 0.590342 97 59 59
-2.49274 3.69706 -11.4776 -0.278166 -0.759485 0.588052 127 119 140
-2.35572 3.67149 -11.4719 -0.295571 -0.751182 0.590223 100 97 113
-2.28352 3.62846 -11.4945 -0.29571 -0.750924 0.590482 19 17 22
-2.21237 3.58694 -11.5242 -0.395511 -0.686953 0.609645 18 16 18
-2.05978 3.55373 -11.5019 -0.00674468 -0.879938 0.475041 16 15 17
-2.0929 3.43084 -11.4124 0.0561741 -0.956944 0.284785 17 17 16
-2.09166 3.42886 -11.4059 -0.00665954 -0.955731 0.294167 17 17 16
-2.09166 3.42886 -11.4059 -0.00665954 -0.955731 0.294167 17 16 15
-1.99128 3.52873 -11.5354 0.0335347 -0.847716 0.529389 30 16 14
-1.92099 3.51051 -11.5726 0.0335016 -0.848439 0.528232 85 45 25
-1.92069 3.51066 -11.5727 0.01306 -0.852912 0.521891 85 45 25
-1.84997 3.49074 -11.6088 0.0130697 -0.852908 0.521899 92 45 18
-1.78982 3.47238 -11.5945 0.0330219 -0.777667 0.627808 89 44 19
-1.70634 3.41961 -11.6315 -0.135904 -0.851394 0.506615 84 39 17
-1.57689 3.39428 -11.6173 -0.326484 -0.786731 0.523891 74 31 12
-1.64668 3.39005 -11.6589 -0.412669 -0.773101 0.481684 71 26 8
-1.50273 3.36283 -11.6597 -0.32838 -0.786592 0.522914 71 31 12
0.0166818 1.59128 -10.3559 0.717375 -0.380223 0.583784 62 44 47
0.0976128 1.70017 -10.5874 0.714855 -0.301189 0.631084 65 48 50
0.263579 1.78038 -10.8041 0.651902 -0.184165 0.7356 59 43 46
0.388749 1.78529 -10.8611 0.661213 -0.266085 0.701425 48 36 39
-2.64716 3.73705 -11.5082 -0.275476 -0.759655 0.589098 89 35 28
-2.57336 3.693 -11.5301 -0.275524 -0.759645 0.58909 130 116 128
-2.49984 3.64929 -11.5521 -0.275524 -0.759645 0.589089 125 119 139
-2.42821 3.65914 -11.5175 -0.328764 -0.776713 0.537244 119 115 134
-2.35694 3.62217 -11.5465 -0.276047 -0.75866 0.590113 22 19 27
-2.28589 3.58052 -11.5812 -0.357826 -0.753371 0.551718 19 17 19
-2.05728 3.50995 -11.5617 -0.00666703 -0.879664 0.47555 17 15 17
-1.99064 3.497 -11.6188 0.0339991 -0.848017 0.528878 41 21 14
-1.92065 3.46865 -11.6431 0.0130701 -0.852908 0.521899 90 47 22
-1.85054 3.43998 -11.667 -0.0189506 -0.876589 0.480866 85 40 12
-1.77853 3.40661 -11.6727 -0.135904 -0.851394 0.506615 85 40 16
-1.72107 3.39372 -11.7168 -0.412669 -0.773101 0.481684 86 40 19
-1.57602 3.35283 -11.7009 -0.328612 -0.786507 0.522897 77 35 16
-1.50273 3.31396 -11.7332 -0.328381 -0.786592 0.522914 70 30 13
-0.400664 1.4022 -9.99582 -0.188076 -0.51312 0.837458 63 50 52
-0.249761 1.44652 -10.1753 0.665996 -0.301604 0.682264 75 54 57
-0.256085 1.41946 -10.1271 0.698213 -0.357216 0.620399 74 54 57
-0.1756 1.47662 -10.2011 0.600671 -0.0294018 0.798955 72 52 55
-0.0716689 1.58769 -10.4036 0.696739 -0.190207 0.691647 77 57 60
0.346187 1.57492 -10.6606 0.572536 -0.530514 0.625106 63 47 52
0.654863 1.60604 -10.9298 0.450927 -0.763783 0.461845 20 19 21
1.82022 -1.44117 -7.74186 -0.822931 -0.21227 0.526998 89 75 41
-2.72048 3.70842 -11.5337 -0.284022 -0.763983 0.579363 116 43 29
-2.64744 3.69101 -11.5893 -0.275653 -0.759529 0.589179 129 105 118
-2.57734 3.62901 -11.6058 -0.231463 -0.851214 0.47102 125 120 139
-2.42941 3.61012 -11.592 -0.276627 -0.758775 0.589693 35 32 40
-2.35906 3.57454 -11.6294 -0.312797 -0.766662 0.560703 18 17 19
-2.27844 3.51494 -11.6188 -0.400073 -0.844818 0.355282 16 15 16
-2.06122 3.47338 -11.6521 0.0339991 -0.848017 0.528878 18 15 16
-1.99064 3.45385 -11.688 0.0339994 -0.848017 0.528878 52 26 16
-1.9198 3.43427 -11.724 0.0339993 -0.848017 0.528877 92 48 21
-1.84982 3.40632 -11.7487 0.0326727 -0.847251 0.530186 89 44 18
-1.77318 3.37291 -11.7235 -0.116233 -0.731391 0.67198 88 43 19
-1.64668 3.34018 -11.739 -0.412669 -0.773101 0.481684 81 37 17
-1.71888 3.33398 -11.7833 -0.411534 -0.773766 0.481588 82 36 14
-1.57602 3.30365 -11.7749 -0.328613 -0.786506 0.522897 74 31 12
-1.50359 3.25816 -11.7978 -0.328612 -0.786507 0.522897 59 20 8
-0.514409 1.41017 -9.99346 0.0834216 -0.0758581 0.993623 24 20 22
-0.453971 1.3756 -10.013 -0.51722 -0.285175 0.806944 58 46 50
-0.399394 1.33135 -10.0014 -0.187605 -0.51184 0.838346 81 67 71
-0.346837 1.31354 -10.0324 0.0703103 -0.527031 0.846933 66 49 52
-0.143575 1.46629 -10.298 0.640947 -0.0927144 0.761965 79 59 62
-0.0973923 1.49347 -10.4036 0.69674 -0.190207 0.691647 87 65 70
-0.0404331 1.499 -10.4232 0.721803 -0.306895 0.620335 84 63 68
0.350135 1.50151 -10.7035 0.408234 -0.497918 0.765129 62 45 50
0.458241 1.50938 -10.7405 0.574078 -0.662018 0.481836 60 45 51
0.584795 1.5523 -10.9502 0.450927 -0.763783 0.461845 30 23 28
0.654863 1.55913 -11.0073 0.450927 -0.763783 0.461845 22 20 24
-2.79503 3.69563 -11.5788 -0.395367 -0.768466 0.503135 108 38 20
-2.58095 3.597 -11.7 -0.250914 -0.840329 0.480509 101 97 111
-2.5045 3.60242 -11.6506 -0.250914 -0.840329 0.480509 62 59 68
-2.42941 3.55604 -11.6616 -0.276628 -0.758775 0.589693 18 18 19
-2.36444 3.52915 -11.728 -0.360537 -0.820352 0.443887 18 17 18
-2.13216 3.45222 -11.6887 0.0344361 -0.847775 0.529237 15 17 17
-2.06136 3.43263 -11.7247 0.0344386 -0.847775 0.529237 20 14 14
-1.99064 3.41054 -11.7574 0.0339997 -0.848017 0.528877 66 37 24
-1.92616 3.40897 -11.8198 0.418097 -0.589598 0.691063 93 48 23
-1.86196 3.39689 -11.8677 0.443673 -0.697004 0.563329 84 40 19
-1.79747 3.38616 -11.917 0.418097 -0.589598 0.691064 80 37 16
-1.64547 3.29156 -11.856 -0.608462 -0.705981 0.362443 76 33 15
-1.57603 3.2549 -11.8782 -0.192442 -0.723694 0.662747 75 33 17
-1.57474 3.2532 -11.8687 -0.347946 -0.662495 0.66335 75 33 17
-1.50412 3.20268 -11.8788 -0.347794 -0.66222 0.663705 50 22 14
-1.26456 2.11666 -10.5101 -0.50254 -0.679624 0.534382 32 19 17
-1.20049 2.08278 -10.5338 -0.502641 -0.679676 0.534221 48 34 33
-1.1337 2.03341 -10.5339 -0.502642 -0.679676 0.534221 46 37 40
-1.06817 1.99556 -10.5483 -0.335201 -0.167872 0.92707 21 17 20
-0.585073 1.41293 -10.1196 -0.543785 -0.240984 0.803881 16 16 17
-0.520306 1.39212 -10.0666 -0.549644 -0.249655 0.797222 21 19 20
-0.482423 1.31607 -10.0523 -0.517221 -0.285178 0.806943 31 24 28
-0.416898 1.30836 -10.013 -0.51722 -0.285175 0.806944 81 68 72
-0.347124 1.26551 -10.0721 0.368517 -0.467574 0.803473 74 56 59
-0.284625 1.31677 -10.1079 0.725137 -0.252849 0.640502 78 57 60
-0.225097 1.33104 -10.2384 0.638865 -0.0940965 0.763542 86 63 69
-0.157212 1.36823 -10.2906 0.638865 -0.0940965 0.763542 86 65 70
-0.15346 1.33071 -10.2928 0.722695 -0.270868 0.635879 98 74 80
-0.0542733 1.43164 -10.4641 0.696741 -0.190206 0.691645 91 69 75
-0.027523 1.37211 -10.3793 0.687556 -0.15316 0.709795 90 68 74
0.298291 1.44606 -10.7311 -0.169505 -0.0735296 0.982782 71 52 58
0.36929 1.45945 -10.7695 0.218705 -0.23767 0.946404 70 53 59
0.448492 1.44933 -10.8114 0.574078 -0.662018 0.481836 62 47 54
0.510199 1.45692 -10.8928 0.574014 -0.662112 0.481783 58 47 52
0.509312 1.45048 -10.8823 0.574078 -0.662018 0.481836 58 47 52
0.571623 1.45661 -10.962 -0.207972 0.0624034 0.976142 31 25 29
0.678787 0.661305 -9.88412 -0.0902563 -0.930921 0.353893 36 33 42
0.626182 0.614742 -9.82508 -0.69257 -0.0541448 0.719316 25 24 28
0.719167 0.537216 -9.82125 -0.857563 -0.0106046 0.51427 131 129 147
0.762306 0.506466 -9.77211 -0.863534 -0.0304191 0.503372 135 132 152
0.853284 0.324809 -9.63028 -0.811554 -0.0326222 0.583366 144 101 115
1.16423 -0.47359 -8.77242 -0.547752 -0.142441 0.824426 152 149 170
-2.65606 3.58496 -11.7422 -0.171465 -0.881979 0.438991 119 116 135
-2.5049 3.55865 -11.7315 -0.250343 -0.840348 0.480775 19 17 21
-2.43612 3.52774 -11.7615 -0.594077 -0.66518 0.452336 15 15 16
-2.13154 3.40784 -11.7533 0.0351011 -0.847179 0.530146 15 16 18
-2.06148 3.38684 -11.7909 0.0339994 -0.848017 0.528878 21 14 15
-1.99006 3.35898 -11.8238 0.418097 -0.589598 0.691063 39 19 11
-1.92616 3.34718 -11.8726 0.418097 -0.589598 0.691063 78 38 22
-1.79747 3.32377 -11.9703 0.418097 -0.589598 0.691064 88 39 17
-1.71619 3.28004 -11.9028 -0.392556 -0.845631 0.361675 73 31 12
-1.64529 3.23516 -11.915 -0.191946 -0.723303 0.663317 68 29 13
-1.57444 3.19046 -11.9278 -0.347794 -0.66222 0.663705 45 20 12
-1.50974 3.1689 -11.9808 -0.76656 -0.539073 0.34898 28 13 10
-1.24403 2.01726 -10.5191 -0.0385704 -0.810406 0.584598 33 19 19
-1.18992 2.02619 -10.5936 -0.0398531 -0.81043 0.584479 43 35 35
-1.12273 1.97467 -10.591 -0.502019 -0.679782 0.534671 16 14 15
-1.06402 1.9276 -10.6061 -0.554717 -0.565503 0.610325 24 23 25
-1.00492 1.95009 -10.5735 -0.547357 -0.546631 0.633715 24 23 26
-0.629116 1.47628 -10.235 -0.805621 -0.118018 0.580557 15 14 15
-0.629116 1.47628 -10.235 -0.805621 -0.118018 0.580557 15 14 15
-0.629116 1.47628 -10.235 -0.805621 -0.118018 0.580557 15 14 15
-0.548684 1.33164 -10.1044 -0.453236 -0.145649 0.879411 17 17 18
-0.445122 1.24931 -10.052 -0.51722 -0.285175 0.806944 43 33 36
-0.393707 1.2126 -10.0766 -0.0869887 -0.147756 0.985191 77 60 64
-0.326909 1.19953 -10.0873 0.431505 -0.212353 0.876761 86 64 68
-0.315103 1.23086 -10.11 0.725465 -0.251896 0.640507 84 62 66
-0.261096 1.19953 -10.1197 0.431505 -0.212353 0.876761 89 66 70
-0.0848714 1.294 -10.353 0.407911 -0.82956 0.381365 88 66 73
-0.0242462 1.3413 -10.4785 0.714451 -0.254151 0.651895 95 72 79
0.330628 1.39849 -10.7758 0.218704 -0.23767 0.946405 79 60 67
0.438743 1.38929 -10.8823 0.574078 -0.662018 0.481836 71 56 62
0.605216 0.688737 -9.97996 -0.80563 0.0428348 0.590869 22 21 25
0.681353 0.581907 -9.8882 -0.798684 0.0604616 0.598705 51 50 60
0.726248 0.4881 -9.87322 -0.850588 -0.139165 0.507082 136 134 154
0.772298 0.403934 -9.7661 -0.889094 -0.081931 0.450332 142 133 155
0.810964 0.356704 -9.68842 -0.887111 -0.0791369 0.454721 140 99 118
0.884986 0.213906 -9.57101 -0.89527 -0.097678 0.434684 137 90 106
0.925905 0.146897 -9.4999 -0.878633 -0.196019 0.435408 125 86 104
1.01382 0.00840025 -9.4151 -0.715433 -0.677282 0.171592 143 140 162
1.09605 -0.0627666 -9.35313 -0.715433 -0.677282 0.171592 147 143 166
1.153 -0.455879 -8.85088 -0.626763 -0.30824 0.715651 151 148 170
1.48032 -0.984136 -8.38854 -0.899603 -0.280729 0.334524 164 144 53
-2.65691 3.54727 -11.8274 -0.212698 -0.862684 0.458842 38 36 47
-2.58503 3.56332 -11.7952 -0.113601 -0.944492 0.30827 20 19 26
-2.50368 3.52802 -11.8242 -0.268171 -0.83864 0.474096 18 18 21
-2.373 3.51788 -11.996 0.00722942 -0.733432 0.679724 14 14 16
-2.11765 3.32072 -11.7792 0.418097 -0.589598 0.691064 15 15 18
