ply
format ascii 1.0
element vertex 719
property float x
property float y
property float z
property float nx
property float ny
property float nz
property uchar diffuse_red
property uchar diffuse_green
property uchar diffuse_blue
end_header
-0.547408 -0.394508 -2.59609 0.0704145 -0.334878 0.939627 34 29 19
-0.53148 -0.394868 -2.60034 0.662354 -0.245556 0.707806 27 30 24
-0.481838 -0.403778 -2.5675 0.432849 -0.295827 0.851544 53 66 53
-0.463904 -0.406002 -2.56755 0.419168 -0.147354 0.895871 52 63 52
-0.448847 -0.405892 -2.57537 0.418435 -0.146068 0.896424 46 57 47
-0.448208 -0.405658 -2.57728 0.393804 -0.242032 0.886757 45 57 47
-0.433264 -0.405887 -2.58367 0.429091 -0.175067 0.886134 46 69 53
-0.433276 -0.405892 -2.58264 0.418435 -0.146067 0.896424 46 69 53
-0.420147 -0.404558 -2.59648 0.413043 -0.141022 0.899727 81 135 100
-0.391947 -0.407654 -2.60852 0.368265 -0.315605 0.874514 98 180 125
-0.376782 -0.407654 -2.6149 0.36826 -0.315605 0.874516 96 166 114
-0.374953 -0.408508 -2.61222 0.480343 -0.290068 0.827727 96 164 112
-0.361254 -0.406924 -2.61712 0.475526 -0.232546 0.848409 67 102 63
-0.346397 -0.40574 -2.62459 -0.31477 0.0948552 0.944417 41 47 25
-0.329077 -0.406343 -2.6235 -0.151521 -0.256294 0.954649 23 26 16
-0.298487 -0.409223 -2.5947 -0.419036 -0.22849 0.87875 18 20 16
-0.267781 -0.427795 -2.55555 -0.223164 -0.385791 0.895189 30 27 15
-0.251242 -0.426837 -2.54684 -0.291912 -0.321327 0.900853 51 36 18
-0.231673 -0.433249 -2.54257 0.0768435 -0.334525 0.939249 95 53 27
-0.216799 -0.431152 -2.5461 -0.0820955 -0.336266 0.938182 127 73 42
-0.199813 -0.432083 -2.54705 0.0747446 -0.334567 0.939403 128 73 41
-0.174778 -0.433979 -2.55549 0.204727 -0.364824 0.90829 129 74 43
-0.159674 -0.433747 -2.56072 0.232842 -0.309446 0.92197 138 92 63
-0.144064 -0.433879 -2.56386 0.257506 -0.30731 0.916107 195 177 162
-0.128832 -0.433878 -2.56814 0.257506 -0.30731 0.916107 191 189 185
-0.114092 -0.434045 -2.5702 0.315246 -0.239724 0.918233 69 68 66
-0.0917785 -0.446863 -2.58204 0.242725 -0.273929 0.930617 181 181 180
-0.107148 -0.446861 -2.57804 0.242728 -0.273929 0.930616 115 114 113
-0.0985565 -0.433766 -2.57584 0.243613 -0.273671 0.930461 203 202 201
-0.0990168 -0.434046 -2.57537 0.315246 -0.239724 0.918233 202 201 200
-0.0762629 -0.446426 -2.58779 0.238417 -0.273744 0.931784 185 186 184
-0.0831391 -0.433623 -2.58043 0.242783 -0.273921 0.930604 190 191 190
-0.0608342 -0.446139 -2.5929 0.238355 -0.273668 0.931822 78 78 77
-0.0677317 -0.433369 -2.58727 0.246259 -0.27716 0.92873 40 41 39
-0.0522635 -0.433043 -2.59073 0.23832 -0.273662 0.931833 92 92 90
-0.0453462 -0.445859 -2.598 0.239166 -0.273635 0.931624 180 181 179
-0.02971 -0.44528 -2.60176 0.27567 -0.308599 0.91037 137 138 136
-0.0144615 -0.44563 -2.60588 0.244269 -0.273099 0.930457 182 182 181
0.000951504 -0.445195 -2.61169 0.232557 -0.264997 0.935785 170 171 170
0.0156511 -0.44472 -2.61703 0.259203 -0.34133 0.903498 69 69 69
0.0269492 -0.438849 -2.61685 0.333224 -0.260514 0.906142 100 100 99
0.0419228 -0.438849 -2.62235 0.333224 -0.260514 0.906143 180 180 179
0.0569324 -0.438849 -2.62787 0.333224 -0.260514 0.906143 143 144 144
0.0719421 -0.438849 -2.63339 0.333224 -0.260514 0.906143 144 145 144
0.0843576 -0.447117 -2.64143 0.254545 -0.265194 0.929989 99 100 100
0.0994095 -0.446795 -2.64433 0.319913 -0.273206 0.907201 125 123 123
0.114534 -0.44651 -2.65082 0.319491 -0.273415 0.907287 87 36 34
0.130589 -0.448263 -2.65614 0.262437 -0.261091 0.928956 214 50 48
0.313591 -0.345648 -3.13696 0.63413 -0.584335 0.50639 21 33 16
0.332388 -0.332258 -3.17054 0.37427 -0.767916 0.519834 17 27 14
0.352059 -0.335941 -3.17277 0.389038 -0.674062 0.627925 21 24 18
0.41168 -0.350898 -3.10481 -0.361602 0.523435 0.771531 65 114 56
0.434222 -0.378561 -3.06997 -0.356792 0.541849 0.760986 82 147 71
0.454604 -0.363784 -3.07093 -0.356792 0.541849 0.760986 95 169 84
0.509695 -0.362463 -3.09325 -0.363585 0.68389 0.632536 109 174 92
0.509695 -0.383243 -3.07079 -0.363585 0.68389 0.632536 111 180 97
0.72749 -0.353338 -3.25681 -0.5105 -0.393692 0.764458 19 18 15
0.746275 -0.353164 -3.244 -0.444496 -0.467979 0.763819 16 16 13
0.873282 -0.387245 -3.13042 -0.00151864 -0.041999 0.999117 92 97 97
0.882891 -0.403871 -3.13111 -0.00151864 -0.041999 0.999117 73 80 80
0.902263 -0.403622 -3.1327 0.07556 -0.106363 0.991452 162 174 173
0.903829 -0.403012 -3.13329 0.135901 -0.0560898 0.989133 171 183 182
0.920668 -0.402204 -3.12994 0.229955 -0.129697 0.96452 195 205 203
0.939872 -0.403556 -3.13547 0.20685 -0.0907015 0.974159 186 192 188
0.958267 -0.403458 -3.13848 0.438387 -0.178131 0.880958 192 196 193
0.977708 -0.40373 -3.14717 0.385515 -0.206093 0.899391 189 191 189
1.01023 -0.40182 -3.15693 0.422378 -0.287206 0.859715 73 63 63
1.02798 -0.401949 -3.16707 0.47947 -0.25986 0.838201 75 66 65
1.04847 -0.40144 -3.18864 0.601842 -0.364619 0.710521 111 105 104
-0.698512 -0.404138 -2.54045 0.32008 -0.294354 0.900502 27 20 20
-0.6869 -0.399875 -2.55054 0.321154 -0.294787 0.899978 31 27 28
-0.670612 -0.400025 -2.55614 0.320986 -0.294777 0.900041 94 125 132
-0.653949 -0.400179 -2.56229 0.270906 -0.328724 0.904738 57 135 156
-0.621126 -0.405331 -2.57247 0.383193 -0.283044 0.879232 177 180 156
-0.606544 -0.404338 -2.58029 0.383216 -0.282761 0.879313 188 111 120
-0.589973 -0.405333 -2.58604 0.382984 -0.283052 0.87932 192 75 107
-0.576003 -0.40489 -2.5943 0.35249 -0.255715 0.9002 191 128 125
-0.560239 -0.40489 -2.60047 0.352495 -0.255715 0.900198 86 69 50
-0.540264 -0.409083 -2.601 0.0465277 -0.310358 0.94948 26 23 17
-0.539919 -0.409684 -2.60154 0.162128 -0.278098 0.946771 26 23 17
-0.523474 -0.409684 -2.60436 0.162127 -0.278098 0.946771 27 32 27
-0.495033 -0.415843 -2.57701 -0.290638 -0.377491 0.879221 38 46 38
-0.476346 -0.41756 -2.57508 0.432849 -0.295827 0.851544 65 75 64
-0.457513 -0.420614 -2.57367 0.418435 -0.146071 0.896424 40 45 38
-0.443975 -0.419634 -2.58617 0.415763 -0.140305 0.898585 45 51 44
-0.428405 -0.419634 -2.59337 0.415763 -0.140304 0.898586 51 72 56
-0.426819 -0.420201 -2.58962 0.429091 -0.175067 0.886133 51 72 56
-0.413224 -0.419272 -2.60197 0.413043 -0.141022 0.899727 80 133 98
-0.400901 -0.420929 -2.60724 0.36893 -0.31449 0.874635 94 166 120
-0.368334 -0.422154 -2.61535 0.556145 -0.267031 0.787018 86 142 98
-0.354713 -0.419415 -2.62487 0.525218 -0.314503 0.790717 50 73 42
-0.341204 -0.41818 -2.63335 0.525218 -0.314503 0.790717 34 37 20
-0.320046 -0.420766 -2.62624 -0.286476 -0.557574 0.77913 19 21 15
-0.305584 -0.429702 -2.62482 -0.279951 -0.561467 0.778706 19 20 16
-0.283998 -0.435859 -2.59216 -0.454992 -0.278122 0.845949 20 20 13
-0.263012 -0.438287 -2.56952 -0.448633 -0.273491 0.850841 38 32 17
-0.240081 -0.446968 -2.54639 0.0766325 -0.334622 0.939232 63 36 16
-0.224642 -0.445656 -2.54912 0.0746929 -0.334606 0.939394 111 61 33
-0.217018 -0.458777 -2.55498 0.0423256 -0.350484 0.935612 116 65 34
-0.208404 -0.44553 -2.55115 0.0747446 -0.334567 0.939403 117 65 33
-0.20057 -0.458977 -2.55657 0.0747446 -0.334567 0.939403 130 77 45
-0.191979 -0.44553 -2.55246 0.0747446 -0.334567 0.939403 128 77 45
-0.183349 -0.446395 -2.55516 0.171914 -0.293885 0.940254 134 80 47
-0.177032 -0.459974 -2.56453 0.158532 -0.593165 0.789318 141 80 43
-0.161642 -0.459934 -2.56863 0.232813 -0.309437 0.92198 135 86 54
-0.168286 -0.446883 -2.56259 0.232815 -0.309437 0.921979 132 79 45
-0.153016 -0.446828 -2.56679 0.232841 -0.309446 0.92197 147 109 85
-0.131149 -0.460033 -2.5761 0.243054 -0.274414 0.930388 197 193 187
-0.137565 -0.447729 -2.56792 0.364105 -0.313686 0.876943 204 194 185
-0.11578 -0.460033 -2.58011 0.243055 -0.274414 0.930388 72 71 68
-0.122779 -0.447559 -2.57183 0.316146 -0.294489 0.901847 145 144 141
-0.100388 -0.460013 -2.58402 0.242918 -0.27397 0.930554 145 145 144
-0.0848776 -0.459637 -2.58947 0.238417 -0.273744 0.931784 78 78 77
-0.0694386 -0.45935 -2.59442 0.282707 -0.272811 0.919593 130 131 130
-0.0539244 -0.459023 -2.59955 0.239273 -0.273653 0.931591 94 94 94
-0.0386376 -0.458996 -2.60358 0.239165 -0.273635 0.931624 58 59 58
-0.0229348 -0.458583 -2.6079 0.244439 -0.272872 0.930479 47 48 47
-0.00774176 -0.458729 -2.61162 0.289219 -0.249584 0.924154 83 84 83
0.00781193 -0.458143 -2.61792 0.294938 -0.247098 0.923014 92 93 92
0.0243629 -0.465259 -2.62461 0.285508 -0.28787 0.91412 110 110 109
0.0330112 -0.452026 -2.62376 0.339691 -0.257002 0.904743 68 69 68
0.0331937 -0.452189 -2.62298 0.333224 -0.260514 0.906142 69 70 69
0.0393425 -0.465095 -2.63092 0.284001 -0.278322 0.91754 191 192 191
0.0487351 -0.45236 -2.62771 0.33161 -0.259126 0.907132 101 101 100
0.063192 -0.452221 -2.63402 0.333224 -0.260514 0.906143 79 80 78
0.0908185 -0.459791 -2.64612 0.320052 -0.272972 0.907223 193 194 194
0.105784 -0.45976 -2.65152 0.320019 -0.273156 0.907179 116 103 102
0.122022 -0.46146 -2.65742 0.262436 -0.261091 0.928956 133 33 31
0.34058 -0.357126 -3.16604 0.335378 -0.653668 0.67841 69 84 68
0.348519 -0.350939 -3.17238 0.512499 -0.66846 0.538987 45 55 46
0.34058 -0.357126 -3.16604 0.335378 -0.653668 0.67841 57 71 55
0.41168 -0.374061 -3.0891 -0.361602 0.523435 0.771531 60 103 49
0.428775 -0.39314 -3.03907 -0.502903 0.303677 0.80924 83 143 70
0.454604 -0.384307 -3.05632 -0.356792 0.541849 0.760986 90 163 79
0.46626 -0.399222 -3.05642 -0.422282 0.522606 0.740649 93 166 82
0.474987 -0.390053 -3.04267 -0.356792 0.541849 0.760986 101 179 91
0.723078 -0.369629 -3.27752 -0.296867 -0.205557 0.932532 84 81 79
0.741376 -0.371344 -3.25681 -0.510499 -0.393692 0.764459 30 27 24
0.873234 -0.420584 -3.13182 -0.00151794 -0.041999 0.999116 23 22 20
0.893536 -0.421111 -3.13662 0.140731 -0.243698 0.959586 54 60 59
0.910954 -0.420753 -3.12924 -0.627495 -0.541586 0.559405 148 153 149
0.912529 -0.419305 -3.13734 0.262396 -0.0999234 0.959773 157 166 165
0.930259 -0.419959 -3.13496 0.206849 -0.0907019 0.974159 194 203 202
0.949295 -0.420173 -3.14087 0.209991 -0.0936352 0.973209 183 188 185
0.968143 -0.420308 -3.14612 0.467586 -0.166538 0.868118 184 187 185
0.98512 -0.420308 -3.15526 0.467586 -0.166538 0.868118 186 185 184
1.00139 -0.418869 -3.16161 0.467892 -0.217571 0.856586 85 78 78
1.01728 -0.418344 -3.16603 0.479482 -0.25986 0.838194 66 56 55
1.0374 -0.419724 -3.18864 0.601864 -0.364618 0.710502 85 79 78
1.07312 -0.424756 -3.20933 0.533671 -0.467477 0.704741 64 57 60
-0.696221 -0.414252 -2.55157 0.306777 -0.395281 0.865818 29 21 21
-0.680303 -0.41405 -2.55753 0.321152 -0.294787 0.899979 39 43 42
-0.663484 -0.414622 -2.56257 0.309627 -0.327359 0.89273 109 158 166
-0.640711 -0.428669 -2.57562 0.309625 -0.32736 0.89273 61 136 152
-0.647333 -0.414382 -2.569 0.308649 -0.326673 0.89332 47 125 143
-0.632057 -0.417979 -2.57443 0.383201 -0.28321 0.879175 124 175 172
-0.615004 -0.419435 -2.57968 0.382983 -0.283052 0.879321 177 160 147
-0.599417 -0.419435 -2.58647 0.382984 -0.283052 0.87932 191 95 117
-0.584658 -0.419111 -2.59506 0.520418 -0.240392 0.819376 195 84 111
-0.569952 -0.418581 -2.60136 0.352121 -0.252483 0.901257 169 109 108
-0.553944 -0.418715 -2.60662 0.341284 -0.281524 0.896811 63 43 32
-0.538066 -0.418714 -2.61266 0.341286 -0.281524 0.89681 24 24 19
-0.515788 -0.423825 -2.60983 0.162128 -0.278098 0.946771 28 31 27
-0.501707 -0.430508 -2.5847 -0.290592 -0.377582 0.879197 30 36 29
-0.485056 -0.431531 -2.57364 0.432545 -0.296005 0.851637 43 52 43
-0.468587 -0.434954 -2.57707 0.418961 -0.189345 0.888043 55 58 50
-0.450408 -0.435847 -2.57947 0.418434 -0.146071 0.896424 38 38 33
-0.436006 -0.435764 -2.59079 0.418402 -0.36384 0.832202 46 49 43
-0.421539 -0.434251 -2.59883 0.415763 -0.140304 0.898586 45 63 49
-0.422226 -0.43534 -2.59952 0.413203 -0.272839 0.868805 45 61 48
-0.406343 -0.433894 -2.60742 0.413043 -0.141022 0.899727 73 118 88
-0.406173 -0.434233 -2.60599 0.415692 -0.140235 0.898629 72 116 86
-0.385318 -0.4292 -2.6215 0.265184 -0.647326 0.714596 97 165 122
-0.361806 -0.434387 -2.62412 0.556145 -0.267031 0.787018 63 96 66
-0.348216 -0.431839 -2.63286 0.556145 -0.267031 0.787018 35 43 24
-0.319163 -0.433754 -2.63026 -0.348156 -0.5122 0.785136 20 20 15
-0.290114 -0.451453 -2.60057 -0.454992 -0.278122 0.84595 20 21 15
-0.268356 -0.458402 -2.55727 -0.394191 -0.231642 0.889357 25 22 14
-0.248712 -0.460469 -2.55049 0.0766324 -0.334622 0.939232 45 32 15
-0.232548 -0.460052 -2.55228 0.0764543 -0.334642 0.939239 85 47 23
-0.224954 -0.473216 -2.55811 0.0764175 -0.335402 0.938971 103 57 31
-0.21768 -0.458609 -2.55747 0.0720841 -0.335339 0.939336 116 65 34
-0.208292 -0.473295 -2.55896 0.076667 -0.335025 0.939085 122 69 37
-0.191828 -0.473295 -2.56031 0.076667 -0.335025 0.939085 129 75 42
-0.169921 -0.473123 -2.56945 0.232421 -0.309698 0.921991 140 85 49
-0.155037 -0.472908 -2.57465 0.232813 -0.309437 0.92198 137 95 67
-0.155063 -0.472945 -2.57521 0.23256 -0.311766 0.921259 137 95 67
-0.139811 -0.47293 -2.57835 0.232813 -0.30944 0.921979 199 185 173
-0.124344 -0.47314 -2.58092 0.232842 -0.309145 0.922071 172 170 165
-0.10905 -0.473262 -2.58577 0.243055 -0.274414 0.930388 40 39 38
-0.0937268 -0.472426 -2.59156 0.238501 -0.273805 0.931745 75 75 74
-0.0937743 -0.473262 -2.58976 0.243054 -0.274414 0.930388 75 75 74
-0.0781471 -0.472808 -2.59506 0.238418 -0.273744 0.931784 137 137 136
-0.0630627 -0.472354 -2.60024 0.282708 -0.272811 0.919592 107 107 106
-0.0511821 -0.475236 -2.60445 0.226305 -0.317622 0.920816 86 87 86
-0.036399 -0.475398 -2.60739 0.226162 -0.317593 0.920861 161 162 161
-0.0363793 -0.4752 -2.6087 0.311288 -0.27738 0.908934 158 159 157
-0.0162462 -0.471894 -2.61251 0.289219 -0.249584 0.924154 126 127 126
-0.00119427 -0.471752 -2.61782 0.275059 -0.243849 0.929989 148 149 147
0.0144404 -0.471091 -2.62477 0.29521 -0.24766 0.922776 179 180 178
0.0308265 -0.478 -2.63219 0.284001 -0.278322 0.91754 167 168 167
0.0532245 -0.475057 -2.63666 0.295616 -0.348271 0.889561 91 93 91
0.0824436 -0.472685 -2.64737 0.320686 -0.286682 0.902759 184 187 186
0.066598 -0.471804 -2.64591 0.366701 -0.141533 0.91951 183 185 183
0.097077 -0.472892 -2.65403 0.321879 -0.292293 0.900532 189 188 186
0.113053 -0.474326 -2.65877 0.375608 -0.256976 0.890439 86 49 48
0.11306 -0.474265 -2.65889 0.392463 -0.265918 0.880489 86 49 48
0.127523 -0.474372 -2.66439 0.375465 -0.322853 0.868788 179 41 40
0.327003 -0.36585 -3.17528 0.335682 -0.653589 0.678336 85 103 89
0.404365 -0.408816 -3.08153 -0.52866 0.298376 0.794664 26 47 19
0.425128 -0.406429 -3.06862 -0.52866 0.298376 0.794664 70 119 58
0.423935 -0.404753 -3.06476 -0.732383 0.325757 0.597911 64 112 52
0.442375 -0.405944 -3.04831 -0.500811 0.261373 0.82515 81 144 68
0.449296 -0.430084 -2.97904 -0.305965 0.586942 0.74959 89 159 77
0.466261 -0.419244 -3.0423 -0.422282 0.522606 0.740649 89 158 78
0.717633 -0.390535 -3.27062 -0.311243 -0.0983373 0.945229 126 128 125
0.73638 -0.389606 -3.26955 -0.510499 -0.393692 0.764459 101 92 82
0.883447 -0.437241 -3.13922 0.140732 -0.243686 0.959589 23 22 20
0.902446 -0.43724 -3.14202 0.140731 -0.2437 0.959586 42 45 44
0.939842 -0.436671 -3.14113 0.174551 -0.2597 0.949783 192 200 198
0.940321 -0.436887 -3.14332 0.211041 -0.0964878 0.972703 193 201 199
0.921022 -0.436682 -3.14003 0.173059 -0.264199 0.948815 120 127 125
0.921143 -0.437726 -3.14141 0.144152 -0.246333 0.958405 118 125 123
0.958255 -0.436554 -3.14438 0.209992 -0.0936352 0.973209 195 201 200
0.967333 -0.452693 -3.15062 0.17455 -0.259698 0.949784 197 204 203
0.986171 -0.452693 -3.15408 0.17455 -0.259698 0.949784 185 190 187
0.992048 -0.436301 -3.16131 0.45348 -0.20933 0.866336 191 191 190
1.0084 -0.435924 -3.16692 0.437123 -0.260445 0.860867 165 160 159
1.01507 -0.452151 -3.17522 0.437124 -0.260445 0.860867 181 182 180
1.02711 -0.438612 -3.18094 0.457095 -0.278892 0.844561 146 142 142
1.04311 -0.435683 -3.20167 0.601864 -0.364618 0.710502 105 100 101
1.05706 -0.445913 -3.20139 0.452202 -0.277154 0.847761 100 90 92
1.07205 -0.44574 -3.21167 0.526211 -0.293039 0.798267 93 82 84
-0.689407 -0.42867 -2.55873 0.309627 -0.327359 0.89273 29 23 21
-0.673188 -0.42867 -2.56435 0.309626 -0.327359 0.89273 61 73 74
-0.66666 -0.442747 -2.57178 0.309626 -0.327359 0.89273 86 108 114
-0.656969 -0.42867 -2.56998 0.309627 -0.327359 0.89273 102 162 174
-0.651305 -0.441287 -2.57761 0.242536 -0.29623 0.923809 77 144 159
-0.624845 -0.433222 -2.58044 0.383914 -0.283937 0.87863 134 175 172
-0.608875 -0.433556 -2.58689 0.382985 -0.283052 0.87932 169 130 133
-0.593869 -0.433331 -2.59498 0.46166 -0.253014 0.850208 196 86 116
-0.563082 -0.433353 -2.60552 0.329482 -0.259491 0.907803 138 76 78
-0.546753 -0.433585 -2.60937 -0.0507731 -0.287439 0.956452 48 30 23
-0.531108 -0.433724 -2.61644 0.340991 -0.272319 0.89976 22 25 20
-0.516573 -0.430775 -2.62493 0.442068 -0.185754 0.877537 24 28 25
-0.491248 -0.445034 -2.58749 -0.290592 -0.377582 0.879197 35 42 35
-0.475743 -0.444343 -2.58594 -0.28546 -0.377994 0.880701 52 54 47
-0.464806 -0.459064 -2.58753 -0.288203 -0.377739 0.879916 57 55 50
-0.443757 -0.449225 -2.58821 0.359228 -0.401016 0.842699 39 36 33
-0.429062 -0.449225 -2.59448 0.359229 -0.401016 0.842698 44 45 41
-0.414715 -0.448778 -2.60425 0.415762 -0.140304 0.898586 43 52 43
-0.39934 -0.448773 -2.6114 0.415688 -0.14023 0.898632 55 78 61
-0.399505 -0.448425 -2.61283 0.413043 -0.141022 0.899727 55 79 62
-0.384025 -0.448763 -2.6185 0.41311 -0.137463 0.900247 66 96 76
-0.368896 -0.448963 -2.62483 0.305862 -0.169384 0.936887 60 84 64
-0.355296 -0.446584 -2.63286 0.556145 -0.267031 0.787018 39 47 31
-0.345113 -0.460453 -2.63102 0.210849 -0.360031 0.908802 26 24 18
-0.340139 -0.444815 -2.63695 -0.22575 0.349199 0.909449 22 25 16
-0.33323 -0.458435 -2.64729 0.316813 -0.385542 0.866595 18 16 14
-0.318918 -0.458133 -2.65464 0.318027 -0.38478 0.866489 12 12 12
-0.324009 -0.445682 -2.64526 0.316835 -0.385549 0.866584 17 16 13
-0.288479 -0.463889 -2.61381 -0.471571 -0.320136 0.821666 17 18 12
-0.270992 -0.463002 -2.59801 -0.624534 0.0904951 0.775737 26 22 14
-0.258021 -0.473216 -2.55541 0.0764182 -0.335402 0.93897 32 26 16
-0.250506 -0.486588 -2.56205 -0.27978 -0.211328 0.936517 40 29 16
-0.241466 -0.473216 -2.55676 0.0764182 -0.335402 0.93897 55 32 15
-0.233036 -0.48701 -2.56045 0.0761016 -0.33447 0.939329 75 40 20
-0.217088 -0.486732 -2.56357 0.0764183 -0.335402 0.93897 117 64 35
-0.216924 -0.486442 -2.56241 0.0682507 -0.330961 0.941173 118 65 35
-0.20045 -0.486774 -2.56441 0.076667 -0.335025 0.939085 121 68 37
-0.179008 -0.485958 -2.57395 0.230745 -0.311032 0.921963 127 71 40
-0.163658 -0.485808 -2.5768 0.232813 -0.309437 0.92198 135 83 49
-0.148471 -0.485808 -2.58064 0.232811 -0.309437 0.92198 155 123 101
-0.133337 -0.485807 -2.58446 0.232811 -0.309437 0.92198 205 198 191
-0.117325 -0.486588 -2.58625 0.33103 -0.248129 0.910413 106 104 100
-0.10236 -0.48641 -2.59139 0.243054 -0.274414 0.930388 91 90 90
-0.087106 -0.486368 -2.59537 0.243053 -0.274414 0.930388 172 172 170
-0.0723495 -0.486436 -2.60129 0.323645 -0.266917 0.90775 143 144 142
-0.0448276 -0.487956 -2.60965 0.226162 -0.317593 0.920861 155 157 154
-0.0596414 -0.487866 -2.6064 0.243453 -0.337372 0.909346 139 141 138
-0.0448688 -0.488236 -2.60842 0.299313 -0.211528 0.930413 152 154 151
-0.0302842 -0.487838 -2.61515 0.311889 -0.278161 0.908489 105 107 104
-0.00973595 -0.485103 -2.61784 0.278076 -0.318348 0.906272 183 184 182
0.00537074 -0.484894 -2.62321 0.275059 -0.243849 0.929989 158 159 157
0.0210635 -0.483938 -2.63182 0.266135 -0.237152 0.934308 136 137 135
0.0451963 -0.486829 -2.63964 0.162567 -0.398814 0.902507 111 111 109
0.0589159 -0.487231 -2.64333 0.295472 -0.348493 0.889522 147 148 146
0.0583261 -0.485713 -2.64475 0.366702 -0.141533 0.91951 141 141 139
0.0731945 -0.486065 -2.64918 0.318147 -0.233256 0.918898 154 154 153
0.0884805 -0.485593 -2.65361 0.320686 -0.286682 0.902759 199 200 199
0.104309 -0.487201 -2.65895 0.375403 -0.322749 0.868853 142 134 133
0.103759 -0.487084 -2.65877 0.358399 -0.2186 0.907614 143 136 135
0.104023 -0.487179 -2.65893 0.339161 -0.261917 0.903531 143 135 134
0.11862 -0.487177 -2.66531 0.375466 -0.322853 0.868787 99 31 29
0.132996 -0.487208 -2.67129 0.436615 -0.281221 0.854566 217 49 46
0.271516 -0.432666 -3.0174 0.521647 0.393139 0.757183 118 144 108
0.427497 -0.426062 -3.03997 -0.459738 0.335483 0.822248 58 100 46
0.417372 -0.443367 -3.03844 -0.365038 -0.0700134 0.928356 39 68 30
0.434088 -0.444313 -3.02883 -0.459738 0.335483 0.822248 67 111 53
0.445278 -0.449905 -2.99508 -0.655305 0.220647 0.72242 81 137 66
0.462355 -0.45305 -3.00141 -0.286411 0.308464 0.907094 84 147 70
0.482975 -0.45305 -2.9949 -0.286411 0.308464 0.907094 97 167 83
0.643453 -0.418447 -3.18468 -0.0514498 0.706085 0.706256 135 135 130
0.825425 -0.428448 -3.24889 -0.422942 -0.319707 0.847884 24 20 15
0.892721 -0.453249 -3.14328 0.362202 -0.314969 0.877271 23 22 19
0.910476 -0.452575 -3.14103 0.174186 -0.25949 0.949907 31 34 32
0.929809 -0.452854 -3.14569 0.214055 -0.308971 0.92667 113 120 117
0.929369 -0.452575 -3.14449 0.174186 -0.25949 0.949907 112 119 116
0.919255 -0.468704 -3.14753 0.173878 0.0277223 0.984377 27 29 26
0.938757 -0.469017 -3.15201 0.180438 -0.250964 0.951031 85 89 88
0.919766 -0.468066 -3.15357 0.199873 -0.296774 0.933797 28 30 28
0.948472 -0.452693 -3.14716 0.17455 -0.259699 0.949784 187 195 194
0.949106 -0.453192 -3.14742 0.222501 -0.153126 0.962832 187 195 195
0.957123 -0.468731 -3.15313 0.174549 -0.259699 0.949784 154 161 162
0.958193 -0.469646 -3.1539 0.23519 -0.160452 0.958614 154 161 162
0.977098 -0.469916 -3.16063 0.233805 -0.160446 0.958954 193 201 200
0.975995 -0.468731 -3.1566 0.174549 -0.259699 0.949784 195 202 202
0.997176 -0.469959 -3.17017 0.394724 -0.331461 0.856929 180 186 183
0.997005 -0.469198 -3.17437 0.365945 -0.317325 0.874865 181 186 184
0.997269 -0.470845 -3.17275 0.536874 -0.192072 0.821508 180 185 183
1.01493 -0.469959 -3.17835 0.394724 -0.331461 0.856929 173 175 173
1.03241 -0.452151 -3.18402 0.437123 -0.260445 0.860867 124 121 122
1.04614 -0.462317 -3.20092 0.452202 -0.277154 0.847761 119 112 115
1.06353 -0.462317 -3.2102 0.452202 -0.277154 0.847761 107 100 102
1.07342 -0.469266 -3.20544 0.569922 -0.354409 0.741339 105 93 96
-0.66051 -0.455164 -2.57965 0.242531 -0.296231 0.923811 108 138 148
-0.644382 -0.455723 -2.5845 0.192359 -0.334943 0.922394 55 131 148
-0.633975 -0.447695 -2.58051 0.383191 -0.283044 0.879233 67 146 161
-0.618367 -0.447695 -2.58731 0.382985 -0.283052 0.87932 130 162 167
-0.618344 -0.447695 -2.58732 0.382985 -0.283052 0.87932 130 162 167
-0.602738 -0.447695 -2.59412 0.382985 -0.283052 0.87932 176 116 130
-0.587521 -0.446909 -2.6018 0.396718 -0.262497 0.879608 196 85 115
-0.572376 -0.447496 -2.60626 0.349255 -0.304345 0.886225 190 87 110
-0.550192 -0.461599 -2.61985 0.349255 -0.304346 0.886225 80 37 36
-0.556352 -0.447878 -2.61116 0.340991 -0.272319 0.89976 108 52 54
-0.556493 -0.447496 -2.61252 0.349255 -0.304346 0.886225 105 51 52
-0.540469 -0.447878 -2.61718 0.340991 -0.272319 0.89976 38 28 22
-0.524144 -0.447603 -2.62117 0.379578 -0.147807 0.913276 23 25 22
-0.517999 -0.459508 -2.62524 0.505249 -0.232507 0.831062 27 30 27
-0.480799 -0.459548 -2.59026 -0.290592 -0.377581 0.879198 40 43 37
-0.471361 -0.473654 -2.59554 -0.268174 -0.316984 0.909727 48 51 45
-0.446611 -0.476583 -2.59798 0.441465 -0.367047 0.81877 35 33 29
-0.436532 -0.462843 -2.59725 0.441465 -0.367047 0.81877 38 34 32
-0.42929 -0.477021 -2.60346 0.377782 -0.253288 0.890576 36 33 31
-0.422646 -0.462843 -2.60474 0.441465 -0.367047 0.818771 44 41 40
-0.417928 -0.475594 -2.61245 0.496653 -0.700164 0.512938 54 50 51
-0.408788 -0.462843 -2.61221 0.441465 -0.367047 0.818771 45 44 41
-0.399551 -0.478336 -2.61112 0.379395 -0.340674 0.860233 45 42 41
-0.377557 -0.463156 -2.62457 0.305862 -0.169385 0.936887 52 59 52
-0.393084 -0.462997 -2.6183 0.413181 -0.137261 0.900245 48 51 46
-0.361748 -0.463156 -2.62973 0.305862 -0.169385 0.936887 43 45 37
-0.341703 -0.472291 -2.64808 0.18896 -0.385224 0.90327 20 17 15
-0.300438 -0.472669 -2.62715 -0.471706 -0.323458 0.820285 15 15 13
-0.300223 -0.472924 -2.62682 -0.469515 -0.317384 0.823907 15 15 13
-0.300223 -0.472924 -2.62682 -0.469515 -0.317384 0.823907 14 15 12
-0.300223 -0.472924 -2.62682 -0.469515 -0.317384 0.823907 15 16 13
-0.266894 -0.486588 -2.56695 -0.27978 -0.211328 0.936517 25 21 13
-0.277571 -0.48013 -2.61319 -0.302891 -0.268554 0.914405 20 17 12
-0.257803 -0.501064 -2.5675 -0.27978 -0.211328 0.936517 29 23 14
-0.242043 -0.500147 -2.56503 0.0759671 -0.334638 0.93928 50 31 16
-0.225476 -0.500147 -2.56637 0.0759666 -0.334637 0.93928 96 51 28
-0.209218 -0.500256 -2.56904 0.0764183 -0.335402 0.93897 113 61 30
-0.193578 -0.499809 -2.57337 0.274522 -0.219295 0.936241 125 72 40
-0.172474 -0.499346 -2.57927 0.22415 -0.297044 0.928182 119 64 35
-0.157163 -0.499346 -2.58297 0.22415 -0.297044 0.928182 132 86 54
-0.142011 -0.498618 -2.58691 0.23263 -0.309522 0.921997 188 167 156
-0.125799 -0.499673 -2.58673 0.33103 -0.248129 0.910413 198 189 186
-0.111141 -0.499673 -2.59207 0.33103 -0.248129 0.910413 70 63 60
-0.0964787 -0.499438 -2.59764 0.271421 -0.254991 0.928068 182 181 179
-0.0807599 -0.499231 -2.60205 0.323645 -0.266917 0.907749 85 85 83
-0.0663192 -0.499231 -2.6072 0.323645 -0.266917 0.907749 185 187 185
-0.0529053 -0.500269 -2.61233 0.31159 -0.279064 0.908314 169 170 167
-0.0386404 -0.500424 -2.61655 0.312113 -0.278005 0.90846 189 190 187
-0.0181413 -0.513072 -2.62698 0.258846 -0.325889 0.909283 182 182 181
-0.00998621 -0.501095 -2.62432 0.259041 -0.326169 0.909127 185 186 183
-0.00986676 -0.500969 -2.62437 0.258896 -0.325931 0.909253 185 186 184
-0.0241726 -0.500837 -2.62088 0.258845 -0.325889 0.909283 94 95 92
-0.00380906 -0.51313 -2.63108 0.258845 -0.32589 0.909283 97 97 97
0.00445935 -0.500951 -2.62907 0.258845 -0.32589 0.909283 130 131 129
0.0104632 -0.51313 -2.63514 0.258845 -0.32589 0.909283 116 116 116
0.0190975 -0.500345 -2.63593 0.271832 -0.184657 0.944462 156 157 156
0.0260753 -0.513958 -2.6406 0.271832 -0.184657 0.944462 62 62 61
0.0345848 -0.50014 -2.64129 0.391757 -0.298751 0.870215 180 180 178
0.0415105 -0.513521 -2.64725 0.406782 -0.511381 0.75698 75 74 74
0.0565873 -0.514002 -2.6494 0.271832 -0.184657 0.944462 52 50 50
0.0500387 -0.499649 -2.64354 0.342316 -0.360868 0.867522 176 175 173
0.0495285 -0.500537 -2.64408 0.349157 -0.343131 0.871981 180 179 178
0.0719439 -0.513577 -2.65447 0.366702 -0.141532 0.91951 32 28 29
0.0651314 -0.499637 -2.64961 0.366702 -0.141532 0.91951 135 133 132
0.0717431 -0.513689 -2.65489 0.319891 -0.133866 0.93795 31 28 29
0.0801662 -0.499742 -2.65514 0.313211 -0.14052 0.93923 106 104 104
0.0954369 -0.49994 -2.66156 0.38392 -0.247412 0.889602 143 141 141
0.0866117 -0.513549 -2.6609 0.383874 -0.247437 0.889616 34 30 31
0.101394 -0.513489 -2.66754 0.347653 -0.368992 0.861964 34 29 31
0.109941 -0.500288 -2.6663 0.38474 -0.270929 0.882368 84 65 64
0.124272 -0.500663 -2.67092 0.280697 -0.337868 0.898362 132 29 27
0.115762 -0.512707 -2.67111 0.281099 -0.296782 0.912636 56 20 18
0.130158 -0.513129 -2.67836 0.280318 -0.337275 0.898703 184 44 41
0.138665 -0.50084 -2.6764 0.280318 -0.337275 0.898703 231 50 46
0.18822 -0.501546 -2.71799 0.438701 -0.113282 0.891465 55 79 37
0.257366 -0.46894 -2.92534 -0.152731 0.6561 0.739058 121 161 102
0.286786 -0.452926 -3.01741 0.521647 0.39314 0.757183 124 135 121
0.388561 -0.421858 -3.13864 -0.763787 0.254346 0.593243 29 36 26
0.389311 -0.432832 -3.13557 -0.744641 0.298208 0.597144 37 43 35
0.400504 -0.442188 -3.05123 -0.361657 -0.0473417 0.931108 23 42 16
0.408757 -0.460154 -3.04306 -0.365041 -0.0700192 0.928355 30 51 23
0.426835 -0.460154 -3.03595 -0.365041 -0.0700192 0.928355 48 81 38
0.445294 -0.459314 -3.03305 -0.359947 -0.25683 0.896926 51 92 33
0.449673 -0.4808 -2.98148 -0.232628 -0.500739 0.833753 63 111 49
0.46847 -0.481012 -2.96829 -0.154067 -0.508662 0.847069 91 153 77
0.482267 -0.475044 -2.96415 -0.452598 0.511935 0.730122 94 163 81
0.470948 -0.470599 -2.99119 -0.28624 0.307669 0.907417 88 151 72
0.498359 -0.478977 -2.96298 -0.017822 0.33395 0.942422 101 172 88
0.524881 -0.472074 -2.97927 0.267098 0.615993 0.741088 91 147 74
0.542743 -0.483452 -2.97425 0.272246 0.606129 0.747321 51 79 34
0.821687 -0.448436 -3.24337 -0.329336 -0.268636 0.905192 39 42 30
0.824091 -0.448733 -3.25038 -0.180394 -0.0355034 0.982953 35 39 28
0.846763 -0.449211 -3.24321 -0.239189 0.236496 0.941731 20 19 16
0.910022 -0.483079 -3.16401 0.199843 -0.298616 0.933216 29 29 26
0.910929 -0.484008 -3.15684 0.392209 -0.220988 0.892937 25 24 21
0.927999 -0.484779 -3.15217 0.174548 -0.259699 0.949784 39 38 35
0.928036 -0.484222 -3.1591 0.198202 -0.29676 0.934157 36 36 33
0.946907 -0.484779 -3.15564 0.174549 -0.259699 0.949784 47 48 45
0.96678 -0.485851 -3.15877 0.270847 -0.391528 0.879402 137 140 139
0.966044 -0.484929 -3.1603 0.178533 -0.263817 0.947906 137 140 139
0.986017 -0.486302 -3.16691 0.318321 -0.200204 0.926602 169 175 175
0.985552 -0.485852 -3.16455 0.270847 -0.391528 0.879402 169 175 175
1.00398 -0.486302 -3.17309 0.318321 -0.200204 0.926601 178 183 183
1.0355 -0.479004 -3.20796 -0.0364613 -0.0109471 0.999275 153 150 152
1.06035 -0.47507 -3.22937 0.548356 -0.147054 0.823214 104 96 99
1.07629 -0.477044 -3.22657 0.587434 -0.337589 0.735496 97 89 92
-0.669698 -0.469013 -2.58168 0.242531 -0.29623 0.923811 58 57 63
-0.652873 -0.469932 -2.58493 0.242294 -0.296545 0.923772 112 162 170
-0.636922 -0.469144 -2.58928 0.242589 -0.296161 0.923818 50 130 148
-0.621992 -0.475467 -2.59743 0.31313 -0.293759 0.903137 100 158 173
-0.612221 -0.461854 -2.59455 0.382985 -0.283052 0.87932 139 151 161
-0.606067 -0.476032 -2.60179 0.382986 -0.283052 0.87932 152 141 151
-0.596572 -0.461854 -2.60136 0.382985 -0.283052 0.87932 185 110 129
-0.580979 -0.461792 -2.60824 0.382988 -0.283032 0.879326 190 79 110
-0.566083 -0.461581 -2.61358 0.349255 -0.304346 0.886225 173 79 100
-0.575377 -0.474239 -2.6165 0.38829 -0.288709 0.875145 169 91 122
-0.571342 -0.46724 -2.61384 0.508924 -0.118337 0.852639 182 82 111
-0.559692 -0.4747 -2.62135 0.387739 -0.288579 0.875432 130 80 90
-0.545192 -0.475317 -2.62668 0.464952 -0.319986 0.825487 62 32 28
-0.53582 -0.461865 -2.62675 0.464952 -0.319986 0.825487 34 26 20
-0.527947 -0.473636 -2.63279 0.507672 -0.225469 0.831524 28 20 18
-0.502922 -0.474906 -2.61516 0.206314 -0.307798 0.928814 29 31 27
-0.407306 -0.491372 -2.61617 0.630164 -0.245554 0.736612 54 50 51
-0.386189 -0.47729 -2.6244 0.348247 -0.284227 0.893274 47 45 44
-0.381082 -0.490277 -2.63863 0.351893 -0.329102 0.876278 49 45 46
-0.371582 -0.478255 -2.63619 0.374002 -0.43601 0.818546 49 46 45
-0.357466 -0.478255 -2.64264 0.374002 -0.43601 0.818546 35 30 27
-0.340411 -0.489615 -2.64783 0.0722112 -0.367362 0.92727 22 19 15
-0.323091 -0.488844 -2.65195 0.183054 -0.390587 0.902182 17 16 12
-0.306088 -0.489259 -2.65244 0.071605 -0.375921 0.923881 16 17 14
-0.284638 -0.494811 -2.61984 -0.302891 -0.268554 0.914405 21 18 13
-0.283062 -0.498465 -2.63319 -0.627713 -0.378582 0.680185 18 17 13
-0.268319 -0.494336 -2.61485 -0.302939 -0.268556 0.914388 29 22 15
-0.271789 -0.498497 -2.6147 -0.470497 -0.303053 0.828729 24 20 14
-0.249907 -0.514213 -2.58763 -0.459135 -0.299781 0.836257 43 29 16
-0.248326 -0.51671 -2.56585 0.0612375 -0.359711 0.931052 37 26 15
-0.235318 -0.513348 -2.57758 -0.0775358 -0.331645 0.940213 64 35 17
-0.231999 -0.51639 -2.5675 0.0403966 -0.396944 0.916954 70 38 19
-0.218817 -0.513348 -2.57622 -0.0775359 -0.331645 0.940213 106 55 29
-0.201381 -0.513771 -2.57465 0.0764253 -0.335397 0.938972 121 70 38
-0.186063 -0.513196 -2.57997 0.0920517 -0.208119 0.973762 132 77 44
-0.164668 -0.512065 -2.58715 0.201191 -0.300424 0.932345 128 76 44
-0.150498 -0.512296 -2.58872 0.22415 -0.297044 0.928182 140 101 76
-0.143538 -0.525046 -2.59517 0.224987 -0.296905 0.928024 164 130 90
-0.135025 -0.51223 -2.59299 0.224463 -0.296883 0.928158 209 186 172
-0.119322 -0.51195 -2.59594 0.218953 -0.254232 0.942033 113 89 74
-0.128255 -0.525148 -2.59809 0.224431 -0.296718 0.928218 170 138 81
-0.128038 -0.525142 -2.59827 0.261116 -0.259082 0.92989 169 137 81
-0.104891 -0.512402 -2.59916 0.271425 -0.254686 0.928151 100 87 84
-0.113227 -0.525148 -2.60172 0.224431 -0.296718 0.928218 73 45 21
-0.0983095 -0.525278 -2.60548 0.308371 -0.277443 0.909908 83 76 75
-0.0838961 -0.525278 -2.61036 0.308371 -0.277443 0.909908 147 147 144
-0.0899227 -0.512379 -2.60364 0.271455 -0.254716 0.928134 173 173 170
-0.0899619 -0.512701 -2.60406 0.308469 -0.277638 0.909815 174 174 171
-0.0695159 -0.525278 -2.61524 0.308371 -0.277444 0.909908 129 128 126
-0.075494 -0.512544 -2.60982 0.307402 -0.277545 0.910205 139 139 136
-0.0551927 -0.525333 -2.61984 0.30779 -0.277688 0.91003 46 44 44
-0.0469918 -0.51303 -2.61754 0.312113 -0.278005 0.908459 96 97 95
-0.0611853 -0.512751 -2.614 0.307696 -0.277719 0.910053 181 181 179
-0.0409585 -0.525514 -2.62382 0.25584 -0.328418 0.909224 40 39 38
-0.0264635 -0.52528 -2.62898 0.258846 -0.32589 0.909283 67 66 66
-0.0121246 -0.525279 -2.63307 0.258846 -0.32589 0.909283 46 46 46
0.00218034 -0.525279 -2.63714 0.258845 -0.32589 0.909283 29 29 29
0.0167669 -0.524723 -2.64386 0.311481 -0.332017 0.890362 30 30 30
0.033026 -0.527519 -2.64525 0.271832 -0.184657 0.944463 27 26 27
0.0303902 -0.525431 -2.64538 0.306158 -0.372409 0.876116 27 27 27
0.0482556 -0.527517 -2.64965 0.271832 -0.184657 0.944462 28 27 28
0.0635138 -0.52752 -2.65406 0.319891 -0.133866 0.93795 27 25 25
0.0787645 -0.527531 -2.65933 0.366702 -0.141532 0.91951 27 25 24
0.0926656 -0.525531 -2.66955 0.347632 -0.368933 0.861998 29 25 26
0.107598 -0.52287 -2.68595 -0.693932 -0.431309 0.576568 42 35 39
0.135033 -0.533158 -2.68526 0.220115 -0.242207 0.944926 207 47 45
0.1817 -0.516902 -2.73403 0.74154 -0.262932 0.617241 60 71 32
0.258176 -0.490185 -2.93339 -0.00658698 0.727153 0.686444 123 170 102
0.280737 -0.471742 -2.9924 0.417574 0.565811 0.710978 124 139 118
0.283472 -0.484229 -2.96781 -0.138445 0.686653 0.713681 123 136 117
0.379768 -0.451906 -3.12797 -0.11928 -0.019999 0.992659 106 118 108
0.3881 -0.46081 -3.07576 -0.730574 0.108678 0.674129 71 88 66
0.40193 -0.476742 -3.05821 -0.730574 0.108678 0.674129 34 41 32
0.420771 -0.474245 -3.05219 -0.359447 -0.256559 0.897204 19 32 14
0.438098 -0.475115 -3.04046 -0.359946 -0.256829 0.896927 36 62 26
0.438037 -0.48288 -3.01229 -0.662858 -0.188637 0.724593 38 66 26
0.460195 -0.494465 -2.98788 -0.421229 0.431049 0.797974 58 104 45
0.480168 -0.494228 -2.9787 -0.4353 0.372194 0.819747 86 147 73
0.494878 -0.497925 -2.95092 -0.411185 0.421668 0.80816 96 162 82
0.52124 -0.508318 -2.94693 0.105281 0.713802 0.692389 84 139 66
0.5224 -0.516105 -2.93691 -0.217365 0.625439 0.749385 90 148 72
0.54209 -0.517578 -2.93269 0.104635 0.711681 0.694667 64 98 42
0.81496 -0.468167 -3.23906 -0.114387 -0.258668 0.95917 101 102 89
0.834781 -0.467467 -3.24199 -0.170676 0.235835 0.956688 29 28 23
0.857989 -0.468096 -3.23458 -0.31503 -0.127797 0.940438 22 19 17
0.899936 -0.498533 -3.17171 0.200007 -0.290047 0.935879 25 23 19
0.919264 -0.49815 -3.17892 -0.354701 -0.122367 0.926938 28 28 22
0.938091 -0.499227 -3.17148 0.210171 -0.527874 0.822908 38 36 29
0.919085 -0.502095 -3.1649 0.392209 -0.220988 0.892937 37 36 29
0.956228 -0.500503 -3.1667 0.290334 -0.334666 0.896496 53 50 44
0.975234 -0.501004 -3.17075 0.357288 -0.3903 0.848535 66 65 63
0.993497 -0.501004 -3.17844 0.357288 -0.3903 0.848535 160 164 166
1.02474 -0.496209 -3.20552 0.493233 -0.0289523 0.869415 174 175 176
1.03938 -0.51132 -3.20069 -0.116813 -0.662097 0.740258 110 103 107
1.04512 -0.495664 -3.20779 -0.0364601 -0.0109473 0.999275 109 104 107
1.06435 -0.495663 -3.20709 -0.0364611 -0.0109471 0.999275 93 87 91
1.0698 -0.492722 -3.22986 0.527826 -0.17729 0.830643 95 87 90
-0.689828 -0.480497 -2.56172 0.298492 0.0432383 0.953432 28 21 18
-0.689915 -0.479937 -2.56131 0.206271 0.114266 0.9718 25 19 16
-0.694239 -0.483968 -2.57915 -0.0276681 -0.299662 0.953644 27 19 17
-0.679419 -0.482861 -2.58473 0.243892 -0.294682 0.923948 34 25 27
-0.662656 -0.482932 -2.58799 0.242532 -0.29623 0.92381 88 97 103
-0.646329 -0.482922 -2.59235 0.24253 -0.296221 0.923814 95 148 158
-0.615614 -0.490151 -2.60258 0.382995 -0.283113 0.879296 138 143 156
-0.599938 -0.490151 -2.60941 0.382995 -0.283113 0.879296 139 144 154
-0.589256 -0.485658 -2.60658 0.2892 -0.262592 0.920548 147 127 147
-0.575519 -0.483228 -2.61718 0.40588 -0.318751 0.856539 134 122 148
-0.553554 -0.490334 -2.63233 0.518895 -0.194609 0.832391 81 79 74
-0.560928 -0.478484 -2.62162 0.508924 -0.118337 0.852639 132 99 108
-0.536681 -0.487557 -2.6347 0.52698 -0.294052 0.797387 47 21 17
-0.537689 -0.490692 -2.63789 0.458966 -0.260674 0.849352 51 18 15
-0.523012 -0.490692 -2.64582 0.458966 -0.260674 0.849352 34 20 19
-0.494871 -0.489279 -2.61982 0.20628 -0.307844 0.928806 28 33 27
-0.476203 -0.507494 -2.59817 0.42644 -0.245756 0.87049 31 35 30
-0.46708 -0.493447 -2.59596 0.323839 -0.45811 0.827807 48 50 45
-0.447072 -0.500323 -2.60328 0.153504 -0.292726 0.943795 34 32 29
-0.430763 -0.501057 -2.60482 0.228187 -0.253237 0.940107 32 29 26
-0.416174 -0.499431 -2.62543 0.404352 -0.324431 0.855128 53 48 49
-0.42008 -0.495226 -2.60653 0.630163 -0.245555 0.736612 50 47 48
-0.401021 -0.502613 -2.62725 0.628845 -0.243367 0.738462 46 41 43
-0.387415 -0.502356 -2.63578 0.361678 -0.333906 0.870457 47 45 44
-0.374439 -0.502567 -2.63729 0.403176 -0.32892 0.853967 46 49 43
-0.360235 -0.502113 -2.6461 0.403288 -0.329402 0.853729 44 49 36
-0.331957 -0.504551 -2.64884 0.0331756 -0.386074 0.921871 33 32 20
-0.316767 -0.501661 -2.66085 0.18293 -0.390115 0.902412 21 21 15
-0.300639 -0.501541 -2.6633 0.182511 -0.389742 0.902658 17 19 16
-0.285148 -0.511808 -2.65113 -0.164721 -0.544321 0.822546 16 16 13
-0.266025 -0.507523 -2.62598 -0.5676 -0.394898 0.722416 30 23 16
-0.266025 -0.507523 -2.62598 -0.5676 -0.394898 0.722416 30 23 16
-0.265641 -0.508088 -2.62499 -0.576023 -0.393586 0.716441 30 24 17
-0.254881 -0.531795 -2.58313 -0.500294 -0.401829 0.766968 30 22 13
-0.240102 -0.53054 -2.57873 -0.32137 -0.370046 0.871658 50 30 13
-0.226677 -0.526874 -2.58164 -0.0775358 -0.331645 0.940213 87 45 23
-0.210177 -0.526874 -2.58028 -0.0775358 -0.331645 0.940213 110 58 28
-0.211721 -0.526458 -2.5847 0.0697666 -0.338293 0.938451 106 56 27
-0.194442 -0.526846 -2.58318 0.0726802 -0.33583 0.939114 117 65 34
-0.173977 -0.525094 -2.58846 0.2218 -0.301079 0.927446 140 85 48
-0.158651 -0.525162 -2.5916 0.221694 -0.301116 0.927459 130 78 45
-0.166874 -0.538203 -2.59265 0.221656 -0.301136 0.927462 125 70 36
-0.152009 -0.538053 -2.59739 0.221694 -0.301116 0.92746 133 84 37
-0.13667 -0.537934 -2.60014 0.224428 -0.296718 0.928219 193 160 70
-0.121675 -0.537934 -2.60376 0.224431 -0.296718 0.928218 184 158 70
-0.10668 -0.537934 -2.60739 0.224428 -0.296718 0.928219 43 30 14
-0.0922944 -0.537986 -2.61116 0.308443 -0.277512 0.909863 32 30 30
-0.0778517 -0.537851 -2.61655 0.308405 -0.277508 0.909877 35 34 33
-0.049297 -0.538123 -2.62467 0.217156 -0.25767 0.941514 22 20 20
-0.0644404 -0.538261 -2.62052 0.237664 -0.279596 0.930238 27 26 25
-0.034983 -0.537862 -2.6293 0.270251 -0.299836 0.914911 22 21 20
-0.0206158 -0.537862 -2.63355 0.27025 -0.299836 0.914912 25 24 24
-0.0061214 -0.537457 -2.63914 0.258845 -0.32589 0.909283 28 28 28
0.00811969 -0.537454 -2.64321 0.258853 -0.325889 0.909281 26 25 26
0.0231263 -0.535591 -2.65664 0.279148 -0.710455 0.64601 24 24 24
0.0404969 -0.541364 -2.64716 0.3263 -0.298382 0.896937 25 24 24
0.0551825 -0.541032 -2.65429 0.271832 -0.184657 0.944462 30 29 30
0.0978702 -0.546275 -2.6765 0.311021 -0.291224 0.904685 29 26 27
0.127137 -0.546296 -2.68482 0.219912 -0.241953 0.945038 131 30 27
0.112481 -0.546221 -2.68162 0.313223 -0.292795 0.903417 41 22 21
0.112173 -0.546286 -2.68143 0.21991 -0.24195 0.945039 40 22 21
0.12051 -0.53349 -2.67927 0.2199 -0.24165 0.945119 76 19 17
0.141536 -0.545874 -2.69164 0.220687 -0.24648 0.943687 227 51 48
0.237581 -0.497443 -2.90245 -0.154171 0.652326 0.742093 116 176 92
0.240077 -0.520021 -2.87996 -0.292943 0.45048 0.843358 114 175 89
0.259501 -0.519523 -2.87696 -0.294286 0.44987 0.843216 120 174 99
0.2592 -0.511969 -2.89987 0.136748 0.675816 0.724274 124 174 103
0.279315 -0.519523 -2.87004 -0.294286 0.44987 0.843216 120 147 112
0.282938 -0.507319 -2.93236 0.119772 0.721422 0.682059 123 140 116
0.41393 -0.48984 -3.05337 -0.732032 0.107769 0.672692 21 26 17
0.426518 -0.504327 -3.03735 -0.732032 0.107769 0.672692 17 24 12
0.451044 -0.508176 -3.00497 -0.859114 0.125557 0.496144 38 61 25
0.466155 -0.511849 -2.97534 -0.421229 0.43105 0.797974 58 100 45
0.481556 -0.51504 -2.94876 -0.411185 0.421669 0.80816 81 137 66
0.48595 -0.53101 -2.92644 -0.384323 0.435157 0.814208 78 134 63
0.500982 -0.51504 -2.93888 -0.411185 0.421668 0.80816 95 160 80
0.507774 -0.532812 -2.92921 -0.364498 0.477246 0.79961 95 156 77
0.527506 -0.532812 -2.92021 -0.364498 0.477247 0.79961 96 151 73
0.547428 -0.533039 -2.91313 -0.173879 0.496168 0.850637 83 121 60
0.56685 -0.532603 -2.90203 -0.239438 0.744841 0.622802 46 54 20
0.568491 -0.549162 -2.88209 -0.594646 0.562276 0.574667 57 68 26
0.826014 -0.487288 -3.2368 -0.130849 0.0141914 0.991301 97 97 91
0.8477 -0.487288 -3.23394 -0.130849 0.0141913 0.991301 41 40 38
0.855676 -0.508246 -3.20797 0.00272264 -0.132588 0.991168 63 59 55
0.873306 -0.495751 -3.24453 0.0334828 -0.34463 0.938141 32 25 20
0.875937 -0.508246 -3.20802 0.00272097 -0.132588 0.991168 39 35 31
0.896163 -0.508246 -3.20808 0.00272097 -0.132588 0.991168 25 22 18
0.945153 -0.516462 -3.16812 0.241243 -0.593556 0.767784 57 51 44
0.964314 -0.515756 -3.18014 0.195868 -0.441126 0.87581 64 57 50
0.981751 -0.516824 -3.18077 0.357287 -0.3903 0.848535 53 51 48
1.01297 -0.521984 -3.19931 -0.00709208 -0.722846 0.690973 173 170 170
1.03516 -0.53095 -3.20846 -0.00709169 -0.722846 0.690973 134 127 131
1.05735 -0.522211 -3.19909 -0.00709208 -0.722846 0.690973 70 65 68
1.07932 -0.53156 -3.20852 0.0550424 -0.766339 0.640074 70 65 68
-0.688641 -0.496771 -2.58673 0.243892 -0.294682 0.923948 29 21 19
-0.672388 -0.496772 -2.59102 0.24389 -0.294682 0.923948 45 31 34
-0.655579 -0.496922 -2.59433 0.242532 -0.29623 0.92381 136 120 130
-0.639222 -0.496921 -2.59863 0.242532 -0.296231 0.92381 116 93 113
-0.60945 -0.504352 -2.60984 0.382994 -0.283114 0.879297 162 131 144
-0.593785 -0.504353 -2.61666 0.382994 -0.283114 0.879296 100 155 168
-0.578067 -0.504209 -2.62574 0.44244 -0.240603 0.86392 72 155 177
-0.563235 -0.504349 -2.63291 0.442702 -0.239995 0.863954 97 150 153
-0.548233 -0.504349 -2.6406 0.442702 -0.239995 0.863955 71 57 52
-0.531374 -0.50505 -2.64367 0.415308 -0.214276 0.884085 44 16 12
-0.514773 -0.49516 -2.64138 0.282493 -0.338021 0.897742 30 24 23
-0.456702 -0.513363 -2.60918 0.270557 -0.319499 0.90814 52 52 49
-0.440371 -0.51402 -2.61101 0.273337 -0.322583 0.906216 32 30 27
-0.425708 -0.514644 -2.62002 0.404814 -0.327364 0.853791 34 31 29
-0.412083 -0.514853 -2.62736 0.413872 -0.346139 0.84196 46 41 40
-0.396541 -0.5157 -2.63219 0.43867 -0.379241 0.814705 42 43 39
-0.383441 -0.515433 -2.63799 0.403176 -0.32892 0.853967 43 54 41
-0.369239 -0.515433 -2.6447 0.403176 -0.32892 0.853967 69 94 67
-0.355012 -0.515433 -2.65141 0.403176 -0.32892 0.853967 85 107 73
-0.340956 -0.515559 -2.65789 0.403148 -0.32942 0.853788 51 57 32
-0.326793 -0.515559 -2.66458 0.403148 -0.329421 0.853788 32 29 16
-0.312659 -0.515559 -2.67125 0.403148 -0.329421 0.853788 18 17 13
-0.284439 -0.526144 -2.65514 -0.143987 0.157763 0.976923 13 13 10
-0.26639 -0.53112 -2.63694 -0.238901 -0.278312 0.930306 24 19 13
-0.245383 -0.547334 -2.58054 -0.107996 -0.400214 0.910036 38 27 14
-0.236178 -0.539048 -2.58214 -0.365077 -0.360763 0.858236 56 32 13
-0.220354 -0.539979 -2.58893 0.0697666 -0.338293 0.938451 101 55 28
-0.231564 -0.544036 -2.58287 -0.0836994 -0.354879 0.931158 66 37 17
-0.201265 -0.541069 -2.58149 0.0755484 -0.311806 0.947137 119 66 34
-0.203808 -0.539979 -2.59016 0.0697666 -0.338293 0.938451 119 67 34
-0.186083 -0.54052 -2.58686 0.073047 -0.334863 0.939431 127 73 38
-0.172313 -0.556105 -2.59072 0.0165052 -0.311832 0.949994 145 90 50
-0.160398 -0.55092 -2.59916 0.221704 -0.301091 0.927465 124 70 32
-0.145496 -0.550495 -2.60372 0.225365 -0.297244 0.927824 149 106 35
-0.130104 -0.550693 -2.6058 0.224428 -0.296718 0.928219 208 181 60
-0.115086 -0.550705 -2.60934 0.221606 -0.35018 0.91009 124 106 40
-0.0867142 -0.55059 -2.615 0.316766 -0.271346 0.908862 25 25 23
-0.0863741 -0.550775 -2.61608 0.272524 -0.291285 0.916997 25 25 23
-0.0725553 -0.550488 -2.61931 0.314907 -0.288071 0.90435 24 24 22
-0.0717385 -0.550128 -2.62069 0.30745 -0.311035 0.899295 24 23 22
-0.0578742 -0.551635 -2.6235 0.247211 -0.247254 0.936884 22 21 20
-0.057797 -0.550606 -2.62379 0.251951 -0.27597 0.927557 23 21 20
-0.0427974 -0.551617 -2.62707 0.244742 -0.241596 0.939006 20 19 18
-0.0282012 -0.550625 -2.63213 0.322828 -0.397381 0.858994 21 21 20
-0.014385 -0.549578 -2.64113 0.258845 -0.32589 0.909283 20 20 18
-0.0142925 -0.549412 -2.63463 0.273606 -0.359449 0.892153 25 24 24
-0.000713181 -0.550591 -2.64012 0.230568 -0.336805 0.912908 22 22 21
-0.0104686 -0.559806 -2.64674 0.244188 -0.334136 0.910344 29 29 29
0.00785913 -0.558835 -2.65897 0.377697 -0.0899962 0.921545 25 24 23
0.0190454 -0.55755 -2.6657 0.493243 0.0541339 0.868205 23 22 23
0.00993478 -0.558845 -2.66183 0.330399 -0.0485922 0.94259 24 23 23
0.0323921 -0.560176 -2.65902 0.284942 -0.28743 0.914436 29 26 30
0.0462597 -0.559516 -2.66428 0.28474 -0.287435 0.914497 28 27 27
0.060829 -0.557997 -2.67246 0.286083 -0.196598 0.93782 29 28 29
0.0608473 -0.558593 -2.67195 0.30387 -0.218414 0.927339 29 28 29
0.0755874 -0.558233 -2.67577 0.284039 -0.197745 0.9382 28 26 26
0.0896862 -0.558949 -2.6784 0.313844 -0.248922 0.916264 28 25 24
0.104166 -0.559078 -2.68273 0.313198 -0.249363 0.916365 32 25 24
0.104139 -0.559121 -2.68275 0.219913 -0.241953 0.945038 32 25 24
0.11898 -0.559121 -2.68621 0.219913 -0.241953 0.945038 63 20 17
0.133843 -0.559147 -2.68983 0.204053 -0.304806 0.930299 187 46 42
0.218535 -0.525316 -2.88068 -0.179904 0.597708 0.781268 96 143 68
0.238487 -0.535395 -2.87665 0.135262 0.68893 0.712095 100 151 73
0.2592 -0.529184 -2.88381 0.136747 0.675816 0.724274 116 173 94
0.281629 -0.54178 -2.85903 -0.714455 -0.0512424 0.697802 124 159 108
0.360761 -0.496647 -3.08549 -0.180625 0.345208 0.920981 123 132 123
0.379253 -0.493773 -3.10309 -0.647085 0.391786 0.654052 124 133 124
0.397837 -0.500737 -3.06508 -0.608544 0.368594 0.702719 92 100 92
0.410222 -0.514321 -3.05173 -0.704296 0.191039 0.683719 66 71 64
0.438682 -0.518433 -3.01849 -0.870775 0.0793511 0.485237 20 27 13
0.457351 -0.52542 -2.99366 -0.862113 0.143701 0.485913 35 53 25
0.466967 -0.53232 -2.94466 -0.38398 0.435478 0.814198 48 82 34
0.492451 -0.548354 -2.91419 -0.365583 0.505327 0.78166 80 131 64
0.513822 -0.54862 -2.9133 -0.335406 0.488006 0.805825 91 149 72
0.513729 -0.548423 -2.912 -0.43414 0.401479 0.806435 91 149 72
0.533559 -0.54845 -2.90397 -0.333674 0.489817 0.805445 103 163 81
0.533535 -0.548471 -2.90412 -0.333696 0.49027 0.80516 103 163 81
0.516027 -0.560235 -2.9027 -0.400324 0.387749 0.830296 92 149 73
0.540042 -0.564685 -2.89233 -0.333672 0.489808 0.805451 102 164 82
0.559755 -0.564685 -2.88417 -0.333672 0.489808 0.805451 91 130 66
0.556481 -0.571073 -2.87741 -0.512068 0.494608 0.702246 95 138 71
0.553395 -0.548618 -2.89689 -0.333653 0.49016 0.805244 92 138 71
0.570318 -0.565675 -2.86344 -0.789449 0.413212 0.4539 70 65 24
0.865817 -0.525608 -3.21032 0.00272097 -0.132588 0.991168 92 90 86
0.886044 -0.525608 -3.21037 0.00271931 -0.132588 0.991168 44 42 38
0.906201 -0.525608 -3.21043 0.00271595 -0.132588 0.991168 26 23 19
0.92629 -0.525609 -3.21048 0.00271261 -0.132588 0.991168 41 40 34
0.95317 -0.531053 -3.18899 0.32805 -0.447747 0.831809 86 79 71
0.956319 -0.542952 -3.21179 0.00275227 -0.132516 0.991177 99 93 86
0.973455 -0.530515 -3.19821 0.12812 -0.727751 0.673768 91 86 81
0.989721 -0.531379 -3.20248 -0.00918095 -0.72007 0.693841 52 45 40
1.01279 -0.53976 -3.21791 -0.00709192 -0.722846 0.690973 128 123 121
1.06359 -0.538827 -3.22664 0.00820597 -0.627304 0.778731 95 88 91
-0.681656 -0.510754 -2.59304 0.24389 -0.294682 0.923948 32 22 22
-0.681629 -0.510754 -2.59304 0.243891 -0.294682 0.923948 32 22 22
-0.688967 -0.518726 -2.58504 0.0361326 -0.146123 0.988606 27 19 18
-0.66532 -0.510754 -2.59735 0.243891 -0.294682 0.923948 77 50 56
