ply
format ascii 1.0
element vertex 713
property float x
property float y
property float z
property float nx
property float ny
property float nz
property uchar diffuse_red
property uchar diffuse_green
property uchar diffuse_blue
end_header
-0.687608 -0.745638 -3.67436 0.130026 0.149116 0.980233 228 193 120
-0.656758 -0.745536 -3.67619 0.12931 0.148674 0.980395 169 155 114
-0.624501 -0.745217 -3.67282 0.124188 0.14838 0.981102 183 180 174
-0.593614 -0.745156 -3.66875 0.104129 0.262752 0.959228 180 178 187
-0.563964 -0.744167 -3.6689 0.226868 0.077643 0.970826 179 173 165
-0.561415 -0.744973 -3.66789 0.100976 0.262785 0.959556 168 173 193
-0.505469 -0.744026 -3.6841 0.114751 0.14836 0.982253 205 228 252
-0.455925 -0.726494 -3.65451 0.13981 -0.0560629 0.98859 191 218 246
-0.425869 -0.726517 -3.65873 0.139811 -0.0560625 0.98859 134 167 203
-0.404371 -0.736448 -3.65455 -0.000429559 0.0773591 0.997003 106 140 178
-0.388788 -0.730016 -3.65856 -0.277384 -0.421539 0.863344 114 148 190
-0.352857 -0.730016 -3.64702 -0.277387 -0.421537 0.863344 193 223 250
0.0351472 -0.748629 -3.59303 0.123178 -0.121866 0.984874 126 84 152
0.0675323 -0.748439 -3.61415 0.158885 -0.156576 0.974802 118 76 140
0.18362 -0.748089 -3.67117 -0.0428141 -0.184303 0.981936 81 36 73
0.215383 -0.746583 -3.65026 0.207407 0.012247 0.978178 78 34 59
3.39652 -0.884991 -5.88897 -0.173567 -0.376157 0.910154 119 102 82
-3.72867 -0.819492 -5.28094 -0.0733752 0.294285 0.952897 182 185 131
-3.26405 -0.817864 -5.2707 0.191224 -0.422273 0.886069 95 116 71
-1.52997 -0.757576 -4.04041 -0.132298 -0.533457 0.835417 151 124 216
-1.31875 -0.766127 -3.96036 0.227716 -0.223536 0.947722 121 87 188
-1.29441 -0.766959 -3.99096 0.355791 -0.148319 0.922721 129 95 192
-1.06807 -0.762816 -3.7967 -0.151869 -0.421335 0.894099 160 120 213
-0.96798 -0.762083 -3.65511 0.269877 -0.10905 0.9567 155 115 206
-0.936884 -0.773391 -3.68164 0.360585 -0.0534205 0.931195 161 121 202
-0.908168 -0.770405 -3.68568 0.243604 0.0425746 0.96894 198 160 181
-0.820156 -0.771604 -3.70083 -0.287867 0.158332 0.944491 207 172 139
-0.790492 -0.771604 -3.69179 -0.287867 0.158333 0.944491 205 176 137
-0.760916 -0.771604 -3.68277 -0.287866 0.158333 0.944491 199 174 114
-0.731427 -0.771604 -3.67378 -0.287866 0.158333 0.944491 227 202 121
-0.702229 -0.771786 -3.66847 0.130061 0.149116 0.980229 195 178 102
-0.671388 -0.7717 -3.6703 0.129274 0.148674 0.9804 166 164 109
-0.671961 -0.771786 -3.67248 0.130026 0.149117 0.980233 167 164 108
-0.641099 -0.7717 -3.67429 0.12931 0.148674 0.980395 161 164 142
-0.608407 -0.771319 -3.65997 0.104127 0.262751 0.959229 190 179 179
-0.544944 -0.770354 -3.6645 0.145481 0.119531 0.982114 205 182 205
-0.511806 -0.768559 -3.65226 -0.149285 0.0435073 0.987837 216 224 245
-0.481929 -0.768728 -3.65126 -0.149119 0.0435229 0.987861 181 209 231
-0.451691 -0.765225 -3.64139 -0.325717 -0.0809002 0.942 164 194 221
-0.420519 -0.765225 -3.63061 -0.325717 -0.0808996 0.942 146 177 208
-0.388068 -0.764953 -3.65018 -0.555113 -0.0174864 0.831591 179 207 236
-0.361421 -0.781429 -3.65451 -0.373593 0.314233 0.872746 183 212 237
-0.330737 -0.759508 -3.65518 -0.13858 -0.394679 0.908309 210 230 250
-0.297189 -0.759519 -3.6447 -0.14899 -0.444276 0.883415 134 150 175
-0.00756028 -0.772699 -3.6214 0.105279 -0.176729 0.978613 123 84 160
0.0222277 -0.774744 -3.62715 0.120067 -0.172361 0.977689 123 81 149
0.0237739 -0.771941 -3.62414 0.119248 -0.17292 0.977691 123 81 149
0.0237739 -0.771941 -3.62414 0.119248 -0.17292 0.977691 123 81 149
0.0529645 -0.774744 -3.63092 0.120067 -0.17236 0.977689 115 73 139
0.139844 -0.774014 -3.69488 -0.0503428 -0.168656 0.984389 88 42 93
0.168565 -0.774143 -3.67693 -0.0428136 -0.184306 0.981936 78 33 69
0.198751 -0.77417 -3.6721 -0.0408138 -0.186919 0.981527 81 36 59
3.40399 -0.934251 -5.91262 -0.115856 -0.413575 0.903069 115 98 79
-2.4659 -0.879958 -5.40347 0.369816 0.0562153 0.927403 160 153 158
-2.34348 -0.872926 -5.3737 0.207338 0.857118 0.47155 162 155 160
-2.3192 -0.869872 -5.41457 0.145731 0.384776 0.911433 161 155 160
-2.28263 -0.869863 -5.40794 -0.0887816 0.228928 0.969386 165 160 166
-2.31507 -0.873062 -5.41867 0.0063964 0.303819 0.952708 161 155 160
-2.31665 -0.873031 -5.41833 0.0171337 0.518577 0.854859 161 155 160
-1.51147 -0.817738 -4.04935 -0.164359 0.162807 0.972872 167 143 238
-1.54574 -0.817677 -4.07793 -0.549131 -0.191481 0.813505 158 137 230
-1.28847 -0.798584 -4.02209 -0.557131 0.081155 0.82645 130 98 193
-1.05481 -0.782383 -3.71332 -0.137393 -0.290321 0.947015 156 116 212
-1.06771 -0.804294 -3.8049 -0.175486 0.033181 0.983923 177 145 229
-0.922432 -0.796181 -3.68097 0.243606 0.0425766 0.968939 167 130 190
-0.893454 -0.796181 -3.68825 0.243605 0.0425754 0.96894 203 174 157
-0.888301 -0.788861 -3.68694 0.398012 0.171961 0.901119 192 163 135
-0.856249 -0.782545 -3.71583 -0.0851013 0.597431 0.797392 170 136 100
-0.807074 -0.797395 -3.69019 -0.287989 0.158269 0.944465 158 132 93
-0.776939 -0.798045 -3.68323 -0.287866 0.158333 0.944491 182 167 119
-0.777389 -0.797377 -3.68114 -0.287988 0.15827 0.944465 182 166 119
-0.747742 -0.797456 -3.67208 -0.287988 0.15827 0.944465 199 197 129
-0.716845 -0.797933 -3.66255 0.130026 0.149116 0.980233 187 192 117
-0.685997 -0.797825 -3.66441 0.129222 0.148675 0.980407 168 179 108
-0.655752 -0.797825 -3.6684 0.129273 0.148674 0.9804 171 183 128
-0.623507 -0.797376 -3.66428 0.14855 0.119772 0.981625 174 166 145
-0.594609 -0.797909 -3.6643 0.0846635 0.127452 0.988225 214 182 183
-0.562264 -0.797133 -3.66976 0.14824 0.119482 0.981707 230 184 201
-0.527236 -0.796464 -3.65402 -0.0541113 0.105218 0.992976 218 184 208
-0.49717 -0.795596 -3.6511 -0.149259 0.043465 0.987842 188 200 222
-0.467042 -0.796271 -3.65175 0.145635 0.106053 0.983638 94 124 148
-0.43535 -0.793695 -3.63818 -0.325717 -0.0809 0.942 115 148 175
-0.403871 -0.79391 -3.64136 -0.433559 0.00218285 0.901123 175 207 234
-0.345878 -0.786731 -3.66944 -0.138561 -0.394679 0.908311 188 215 240
-0.312063 -0.786732 -3.66416 -0.138581 -0.394678 0.908309 190 212 236
-0.278192 -0.786732 -3.65899 -0.138581 -0.394678 0.908309 163 176 202
-0.245143 -0.786807 -3.64218 -0.244856 -0.316323 0.916507 191 192 218
0.0726993 -0.800967 -3.68722 0.410173 0.1101 0.905338 103 62 125
0.101283 -0.800967 -3.70017 0.410172 0.1101 0.905338 92 50 111
3.91304 -0.970917 -5.99236 -0.0621664 -0.285331 0.956411 165 149 96
-2.51632 -0.91112 -5.38045 0.371118 0.0574946 0.926804 169 161 167
-2.48225 -0.911389 -5.39448 0.43738 -0.115115 0.891879 162 154 160
-2.33158 -0.905718 -5.40645 0.13883 0.178334 0.974127 163 156 162
-2.29719 -0.902133 -5.40824 0.00637217 0.303728 0.952737 168 163 168
-2.29761 -0.901076 -5.39811 0.347776 0.283968 0.89354 166 161 167
-2.26207 -0.901403 -5.40606 0.00641073 0.303725 0.952738 198 195 200
-2.2267 -0.902096 -5.40859 -0.0100749 0.305701 0.952074 218 216 221
-2.18919 -0.898778 -5.41137 0.0525611 0.295366 0.953937 161 158 165
-1.53346 -0.84574 -4.10777 -0.604387 -0.173274 0.77762 153 133 224
-1.45281 -0.819508 -4.05283 -0.141051 0.322922 0.935856 146 117 216
-1.29463 -0.829348 -4.01092 -0.138811 0.409805 0.90155 112 79 176
-1.06676 -0.817828 -3.74316 -0.124021 0.031794 0.99177 169 131 228
-0.93656 -0.825234 -3.6794 0.343905 -0.230814 0.910195 155 117 207
-0.951102 -0.810377 -3.68973 0.18029 -0.244739 0.95268 156 118 208
-0.907441 -0.823805 -3.68588 0.274175 0.0138543 0.96158 174 141 185
-0.878696 -0.822034 -3.69083 0.243606 0.0425766 0.968939 227 207 168
-0.856249 -0.807536 -3.69711 -0.0851014 0.59743 0.797392 174 155 103
-0.823268 -0.823141 -3.68961 -0.287985 0.158278 0.944464 175 167 108
-0.793477 -0.823923 -3.68159 -0.287988 0.158269 0.944465 166 163 112
-0.763783 -0.823923 -3.67254 -0.287988 0.158269 0.944465 196 206 151
-0.734947 -0.822856 -3.66054 -0.286281 0.156439 0.945288 199 216 151
-0.700606 -0.823951 -3.65852 0.129274 0.148674 0.9804 182 198 124
-0.638097 -0.823573 -3.65887 0.14855 0.119772 0.981625 203 201 143
-0.607031 -0.82338 -3.6598 0.148247 0.119482 0.981706 196 158 144
-0.576884 -0.82338 -3.66436 0.148243 0.119482 0.981707 229 182 188
-0.542473 -0.822488 -3.65209 -0.0541111 0.105218 0.992976 195 158 173
-0.511769 -0.822374 -3.6483 -0.151091 0.0427432 0.987595 187 176 197
-0.450222 -0.822245 -3.64578 -0.325718 -0.0809001 0.942 89 120 145
-0.418765 -0.822235 -3.63972 -0.44731 -0.00806234 0.894343 162 194 218
-0.327179 -0.814081 -3.67734 -0.421226 -0.207454 0.882911 184 211 235
-0.294853 -0.814003 -3.64567 -0.061991 0.0405795 0.997251 206 222 243
-0.259546 -0.813914 -3.66796 -0.138582 -0.394677 0.908309 206 209 229
-0.221169 -0.813502 -3.64047 -0.393657 0.361332 0.845265 192 178 207
-0.0891833 -0.836577 -3.61071 0.544366 -0.0416488 0.837813 132 95 171
-0.0309497 -0.816379 -3.63819 0.281732 -0.143344 0.948725 126 86 156
-0.00232039 -0.816402 -3.64729 0.111875 -0.209185 0.971456 120 81 150
0.0286853 -0.816402 -3.65086 0.111875 -0.209185 0.971456 112 71 140
0.062443 -0.827124 -3.66206 0.638992 -0.0965024 0.763136 93 53 116
1.9664 -0.979556 -5.79849 -0.395981 0.326006 0.85844 105 100 104
2.79938 -0.968588 -5.8397 0.0160191 0.259625 0.965577 57 75 45
2.84855 -0.968892 -5.8456 0.433534 0.352539 0.829316 61 78 45
-3.37417 -0.909483 -5.31204 -0.426841 0.456056 0.780909 106 127 83
-2.56672 -0.942381 -5.35758 0.195855 0.042256 0.979722 165 156 162
-2.53295 -0.943791 -5.37368 0.376722 0.0526359 0.92483 163 154 160
-2.49841 -0.940461 -5.38222 0.51986 -0.0938715 0.849078 164 156 162
-2.34863 -0.936432 -5.39839 0.138831 0.178334 0.974127 166 156 162
-2.27844 -0.93021 -5.38997 0.182965 0.267955 0.945898 175 171 177
-2.31295 -0.936432 -5.40348 0.13883 0.178334 0.974127 161 156 161
-2.24277 -0.931045 -5.39975 0.183079 0.268111 0.945832 223 221 227
-2.20722 -0.930945 -5.40667 0.183079 0.268111 0.945832 198 196 202
-2.171 -0.928099 -5.40329 0.0525612 0.295367 0.953937 148 147 153
-1.58063 -0.871844 -4.13953 -0.410747 -0.373578 0.831701 103 104 145
-1.35099 -0.854984 -4.03487 0.0981919 0.0445655 0.994169 119 88 182
-1.28698 -0.856463 -4.01762 -0.311588 0.243931 0.918374 111 77 182
-0.923386 -0.855643 -3.70137 0.190631 0.03707 0.980962 157 124 207
-0.834193 -0.844199 -3.6895 -0.0954584 0.32722 0.940114 229 226 146
-0.809128 -0.853395 -3.68589 -0.247644 0.13566 0.959307 217 222 141
-0.779871 -0.850469 -3.673 -0.287988 0.15827 0.944465 199 212 150
-0.715194 -0.850039 -3.65264 0.129274 0.148673 0.9804 185 204 139
-0.684993 -0.850039 -3.65662 0.129274 0.148673 0.9804 184 199 120
-0.652687 -0.849769 -3.65347 0.14855 0.119772 0.981625 208 211 134
-0.622915 -0.849846 -3.65938 0.148321 0.119677 0.981671 194 162 125
-0.591002 -0.84949 -3.65708 0.144586 0.119219 0.982284 197 144 138
-0.560868 -0.84949 -3.66151 0.144585 0.11922 0.982284 170 152 147
-0.528008 -0.848619 -3.65041 -0.1646 0.0558015 0.984781 156 158 165
-0.499293 -0.849139 -3.65446 -0.164618 0.0533498 0.984914 161 176 194
-0.406978 -0.849075 -3.66027 0.150746 0.108064 0.982648 190 220 240
-0.406509 -0.849134 -3.64757 -0.0606291 -0.0574146 0.996508 192 222 242
-0.376612 -0.849184 -3.64081 -0.0610592 -0.0565239 0.996532 175 204 227
-0.308212 -0.844476 -3.67543 -0.421226 -0.207454 0.882911 195 210 230
-0.272677 -0.842987 -3.64598 -0.172982 0.340546 0.924178 212 207 229
-0.241496 -0.841253 -3.63459 -0.393532 0.361318 0.845329 158 141 176
-0.210393 -0.841139 -3.62044 -0.392363 0.36529 0.844165 127 94 154
-0.0642426 -0.856735 -3.62792 0.544366 -0.0416488 0.837813 127 90 167
-0.0136822 -0.845674 -3.66926 0.498281 0.0353687 0.866294 120 81 149
0.0124014 -0.852388 -3.69791 0.340161 -0.101393 0.934885 101 58 123
3.2066 -1.01316 -5.90195 -0.171581 0.10305 0.979766 144 138 90
-2.5814 -0.969186 -5.35023 0.0223233 0.225181 0.974061 165 156 161
-2.54932 -0.975555 -5.3652 0.376722 0.0526357 0.92483 166 158 163
-2.5133 -0.963002 -5.35914 0.802193 0.38562 0.455832 164 156 161
-2.32847 -0.971068 -5.40619 -0.166095 0.35434 0.920248 157 151 156
-2.29443 -0.961229 -5.3812 0.183079 0.268112 0.945832 167 163 168
-2.25893 -0.96123 -5.38807 0.183079 0.268112 0.945832 215 212 218
-2.22341 -0.96118 -5.39496 0.183079 0.268112 0.945832 232 229 235
-2.18659 -0.961024 -5.39289 0.261013 0.281732 0.923309 194 193 199
-2.15143 -0.961011 -5.40315 -0.270887 0.213997 0.938523 144 142 149
-1.39751 -0.882008 -4.02906 0.0981925 0.0445663 0.994169 139 109 205
-1.36857 -0.902509 -4.08039 -0.340445 0.0118948 0.940189 119 89 186
-1.33809 -0.887978 -4.04421 -0.529533 0.197809 0.824904 107 74 181
-1.3396 -0.882624 -4.03403 -0.277228 -0.457231 0.845035 110 79 179
-1.27301 -0.912324 -4.06937 0.512821 -0.330714 0.792239 99 66 171
-0.909003 -0.874675 -3.68908 0.034151 0.144175 0.988963 156 124 207
-0.919438 -0.870034 -3.70738 0.140173 -0.194549 0.970826 154 122 205
-0.817504 -0.875677 -3.69326 -0.00907779 0.210054 0.977648 232 232 142
-0.788006 -0.868709 -3.68386 -0.0655133 -0.0211785 0.997627 203 213 134
-0.763194 -0.881423 -3.67639 -0.44743 -0.0660951 0.891873 189 203 128
-0.725965 -0.87594 -3.68529 0.0500266 0.103078 0.993415 191 215 153
-0.682724 -0.892554 -3.67307 0.0483079 0.104004 0.993403 157 180 111
-0.668005 -0.866942 -3.67647 0.0483083 0.104005 0.993403 191 204 123
-0.65448 -0.884314 -3.6638 0.042431 0.100129 0.994069 187 197 124
-0.605538 -0.875696 -3.65552 0.143626 0.118431 0.98252 185 144 117
-0.575477 -0.875681 -3.65618 0.144585 0.119219 0.982284 191 172 144
-0.543868 -0.87582 -3.65215 -0.164542 0.055827 0.984789 141 162 135
-0.513028 -0.875843 -3.64738 -0.164559 0.0558234 0.984786 127 153 149
-0.482011 -0.875354 -3.64586 0.150743 0.108064 0.982649 148 178 193
-0.451506 -0.875271 -3.6491 0.149127 0.106567 0.983059 167 200 221
-0.421497 -0.875257 -3.64999 -0.0605873 -0.0574438 0.996509 174 205 226
-0.391339 -0.875257 -3.64816 -0.060629 -0.0574146 0.996508 174 206 229
-0.353146 -0.869101 -3.65369 -0.173184 0.339331 0.924587 182 205 228
-0.321419 -0.869024 -3.64607 -0.173511 0.340146 0.924226 205 208 227
-0.290099 -0.868981 -3.63966 -0.172982 0.340546 0.924178 175 155 186
-0.256121 -0.867441 -3.63389 -0.116218 -0.0282669 0.992821 130 102 157
-0.22544 -0.868242 -3.63499 0.0737624 -0.250526 0.965296 131 93 161
-0.241842 -0.89429 -3.6345 0.214641 -0.105602 0.970967 130 88 165
-0.199424 -0.868767 -3.60338 -0.392363 0.36529 0.844165 127 84 159
-0.0889327 -0.873002 -3.64851 0.529032 -0.0486883 0.847204 129 93 169
-0.0385092 -0.881966 -3.67391 0.607261 -0.111774 0.786601 114 77 151
-0.0289065 -0.872692 -3.67484 0.226481 -0.0141031 0.973913 114 77 151
0.029004 -0.879772 -3.73867 0.483144 0.0717387 0.872597 90 49 104
3.89466 -1.07813 -5.94996 -0.262203 0.143192 0.95433 126 106 75
-2.70555 -0.997605 -5.32641 0.0858496 0.349229 0.933097 162 154 159
-2.60303 -1.00313 -5.34512 0.226153 0.290279 0.929835 169 160 164
-2.56676 -0.997748 -5.35449 -0.0283992 0.33875 0.940448 164 156 160
-2.34821 -0.99201 -5.37643 -0.0938016 0.520909 0.848442 158 152 158
-2.31075 -0.991817 -5.37009 0.183073 0.268115 0.945832 162 157 162
-2.27509 -0.991396 -5.37639 0.183079 0.268112 0.945832 199 196 201
-2.25574 -1.02156 -5.37159 0.183079 0.268112 0.945832 229 225 231
-2.23959 -0.991396 -5.38327 0.183079 0.268112 0.945832 232 229 234
-2.2207 -1.01878 -5.36963 0.115588 0.312576 0.942834 233 230 235
-2.20403 -0.991396 -5.39015 0.183079 0.268112 0.945832 232 230 235
-2.18441 -1.02164 -5.38379 0.0588783 0.275857 0.959394 230 228 233
-2.16842 -0.991396 -5.39704 0.183078 0.268112 0.945832 188 186 193
-2.1494 -1.01955 -5.37933 -0.238056 0.282087 0.929385 191 190 196
-2.1124 -1.01955 -5.36985 -0.238056 0.282087 0.929385 145 143 151
-1.99168 -1.0013 -5.39371 -0.0317381 0.193334 0.98062 194 195 207
-1.39038 -0.922487 -4.08728 -0.428297 -0.322184 0.844251 133 101 205
-1.35633 -0.928733 -4.14096 -0.338101 -0.20254 0.919057 114 81 187
-1.29622 -0.935828 -4.05071 0.448522 -0.281349 0.848334 101 69 167
-1.26459 -0.94037 -4.08795 0.512304 -0.340336 0.788489 96 64 163
-1.23177 -0.938873 -4.10864 0.512304 -0.340336 0.788489 130 96 193
-0.80227 -0.901582 -3.68759 -0.00907786 0.210053 0.977648 246 240 162
-0.740719 -0.901591 -3.68182 0.0455224 0.0986726 0.994078 201 214 133
-0.741995 -0.897989 -3.6796 -0.180888 -0.0325977 0.982963 199 213 135
-0.711492 -0.898308 -3.67905 0.0501137 0.104316 0.993281 164 188 121
-0.671421 -0.918966 -3.65798 -0.00569409 -0.0723409 0.997364 158 184 117
-0.640909 -0.918388 -3.65385 -0.079647 -0.0553218 0.995287 152 173 121
-0.620015 -0.901908 -3.65713 0.141173 0.11335 0.983475 188 184 139
-0.58998 -0.901903 -3.65576 0.142037 0.116694 0.982959 195 189 143
-0.559952 -0.901869 -3.65535 0.144583 0.11922 0.982284 183 196 140
-0.528748 -0.902968 -3.64847 -0.16456 0.0558234 0.984786 153 183 136
-0.497266 -0.902829 -3.64109 -0.13511 0.359308 0.923387 132 163 144
-0.46558 -0.902829 -3.63646 -0.135109 0.359308 0.923387 119 154 160
-0.436392 -0.901396 -3.65477 -0.0614552 -0.0565377 0.996507 99 135 155
-0.406446 -0.90136 -3.64779 -0.110829 -0.0227451 0.993579 123 158 180
-0.339198 -0.895085 -3.64149 -0.173184 0.339331 0.924587 214 211 226
-0.307489 -0.894978 -3.6339 -0.173511 0.340146 0.924226 140 113 158
-0.275522 -0.895331 -3.63263 0.152747 0.00989278 0.988216 130 93 163
-0.260533 -0.921694 -3.63299 0.339375 -0.0469742 0.939478 133 89 168
-0.0395337 -0.915946 -3.67335 0.685413 -0.0227352 0.727799 97 61 131
2.48437 -1.08038 -5.83847 0.0133657 0.524616 0.851234 105 102 99
3.61507 -1.11851 -5.94033 0.110423 0.592833 0.797719 108 95 82
3.87101 -1.10987 -5.93377 -0.0928104 0.0386364 0.994934 123 105 76
-3.5085 -1.02643 -5.30135 -0.526093 0.225741 0.819919 182 192 138
-2.58283 -1.0301 -5.33595 0.236837 0.33413 0.912286 186 178 182
-2.54922 -1.02685 -5.34348 -0.0283995 0.33875 0.940448 168 159 163
-2.51418 -1.02516 -5.34371 0.503092 0.183478 0.844532 162 153 158
-2.36987 -1.02547 -5.34954 0.284969 0.248272 0.925826 163 156 160
-2.30701 -1.05117 -5.35238 0.225167 0.196897 0.954217 179 174 179
-2.32866 -1.02552 -5.36157 0.190444 0.319255 0.928336 161 156 160
-2.32825 -1.02514 -5.36263 0.179763 0.268228 0.946435 162 156 161
-2.29123 -1.02154 -5.36472 0.183078 0.268112 0.945832 191 188 192
-2.27196 -1.05227 -5.36525 0.291499 0.281876 0.914097 225 222 227
-2.20183 -1.04802 -5.36181 0.455544 0.217118 0.86333 233 231 235
-2.16618 -1.05119 -5.37641 0.0588781 0.275855 0.959394 226 224 229
-2.13107 -1.0495 -5.3733 0.0878157 0.22116 0.971276 186 184 191
-2.09527 -1.05575 -5.37048 -0.430183 0.130655 0.893237 149 148 153
-2.01315 -1.04341 -5.39093 -0.1117 0.183625 0.976629 138 140 146
-1.36381 -0.96741 -4.13332 -0.205803 -0.144608 0.96785 128 95 194
-1.33052 -0.954874 -4.12213 -0.60645 0.0907465 0.789926 102 69 175
-1.3098 -0.970626 -4.07429 0.161486 -0.220358 0.961959 110 77 176
-0.992866 -0.943061 -3.76604 0.186717 0.373225 0.908757 173 143 236
-0.909626 -0.927459 -3.68301 -0.00907851 0.210053 0.977648 146 114 206
-0.787041 -0.927459 -3.68189 -0.00907682 0.210054 0.977648 239 226 164
-0.755818 -0.931933 -3.68739 -0.0247635 0.191795 0.981123 243 238 141
-0.726061 -0.929237 -3.68073 -0.0308932 0.204978 0.978279 217 223 128
-0.686317 -0.946377 -3.66268 -0.442993 -0.197954 0.874398 191 206 120
-0.654793 -0.947188 -3.66227 -0.0825888 -0.0685267 0.994225 167 191 131
-0.623745 -0.947802 -3.66049 -0.218328 0.126056 0.9677 180 207 169
-0.514551 -0.92871 -3.63355 -0.135109 0.359308 0.923387 163 194 133
-0.482524 -0.928812 -3.63892 0.0140993 0.622896 0.782177 142 179 141
-0.46008 -0.931145 -3.66123 -0.365586 0.387897 0.846099 120 157 143
-0.421846 -0.926232 -3.6459 -0.222668 -0.0104293 0.974838 103 138 152
-0.39099 -0.927787 -3.64587 -0.264877 0.151158 0.952361 136 155 170
-0.361105 -0.927787 -3.63755 -0.264876 0.151158 0.952361 203 198 214
-0.328189 -0.92579 -3.61854 -0.368067 0.0210733 0.92956 131 99 151
-0.296718 -0.926421 -3.60916 -0.376021 0.166343 0.911558 136 91 175
-0.203997 -0.936932 -3.57514 -0.500287 -0.483227 0.718474 127 85 163
2.56004 -1.11777 -5.80484 0.0602329 0.315141 0.947132 110 108 101
3.58138 -1.13305 -5.93194 0.125664 0.734899 0.666433 114 96 79
-3.50205 -1.04766 -5.22268 -8.05557e-05 0.230604 0.973048 193 202 149
-2.56976 -1.06208 -5.33309 0.280125 0.061646 0.957982 183 175 178
-2.54608 -1.08361 -5.31895 0.147094 0.33446 0.93086 158 149 153
-2.53012 -1.05458 -5.33191 0.147091 0.33446 0.93086 162 153 157
-2.51079 -1.08545 -5.3301 0.464712 0.335518 0.819433 163 154 158
-2.36311 -1.08791 -5.34031 0.423885 0.271791 0.863974 160 154 158
-2.35021 -1.05677 -5.35643 0.423885 0.271791 0.863974 159 153 156
-2.32248 -1.08329 -5.33957 0.291499 0.281876 0.914097 172 167 171
-2.28698 -1.08329 -5.3509 0.291499 0.281876 0.914097 222 219 223
-2.25141 -1.08329 -5.36224 0.291499 0.281876 0.914097 233 231 236
-2.21586 -1.08329 -5.37358 0.291499 0.281876 0.914097 240 238 243
-2.18345 -1.08042 -5.36581 0.0588883 0.275858 0.959393 233 231 235
-2.14793 -1.08075 -5.36903 0.0588779 0.275854 0.959395 231 229 234
-1.33339 -1.00326 -4.1415 -0.099674 -0.172697 0.979919 123 90 188
-1.34162 -1.00609 -4.15716 -0.329201 -0.43416 0.83853 123 90 196
-1.30024 -1.00835 -4.1484 -0.0908832 -0.181868 0.979114 103 70 169
-1.28417 -0.980806 -4.14627 -0.0782823 -0.386661 0.918893 92 61 160
-1.24597 -0.979731 -4.14082 0.011642 -0.502052 0.864759 103 72 167
-1.21193 -0.996527 -4.15103 0.0116424 -0.502053 0.864759 137 106 197
-1.00686 -0.969392 -3.75188 0.186759 0.373256 0.908736 152 132 220
-0.974669 -0.969392 -3.7585 0.186759 0.373256 0.908736 175 145 238
-0.710956 -0.955152 -3.68194 -0.033935 0.199913 0.979226 223 225 130
-0.639172 -0.97401 -3.66282 -0.0825888 -0.0685268 0.994225 183 201 146
-0.60831 -0.97401 -3.66026 -0.0825889 -0.0685269 0.994225 169 194 152
-0.531805 -0.954544 -3.62602 -0.135109 0.359308 0.923387 175 201 129
-0.481413 -0.957309 -3.64907 0.0992617 0.448803 0.888101 164 200 137
-0.495042 -0.953427 -3.65023 0.0564465 0.150952 0.986928 163 198 132
-0.466215 -0.954008 -3.65139 -0.226529 0.0715831 0.97137 156 193 144
-0.437046 -0.953976 -3.64803 -0.222978 -0.0108021 0.974764 122 155 133
-0.40587 -0.953999 -3.64122 -0.222983 -0.0108037 0.974763 124 137 136
-0.375249 -0.95419 -3.63681 -0.222509 -0.0100761 0.974879 179 166 180
-0.170274 -0.971837 -3.57528 -0.500286 -0.483225 0.718476 113 71 146
3.82522 -1.184 -5.96272 -0.507805 0.0128226 0.861377 121 101 76
-3.14678 -1.10261 -5.27856 0.239966 0.60065 0.762651 201 212 160
-2.52555 -1.1129 -5.30958 0.13862 0.389951 0.910342 160 150 154
-2.39659 -1.08791 -5.32388 0.423884 0.271791 0.863974 164 157 162
-2.37598 -1.11899 -5.32421 0.423885 0.271791 0.863974 157 151 154
-2.34052 -1.1194 -5.33401 0.224134 0.296626 0.928319 169 164 168
-2.30509 -1.1194 -5.34257 0.224133 0.296626 0.92832 217 213 217
-2.26957 -1.11939 -5.35112 0.224133 0.296625 0.92832 233 231 235
-2.23122 -1.11256 -5.35079 0.360993 0.225564 0.904878 237 235 239
-2.16619 -1.11193 -5.35996 0.0700134 0.278824 0.957787 232 231 235
-2.11691 -1.09572 -5.37904 -0.44643 -0.178799 0.876773 218 217 221
-2.07848 -1.10015 -5.36787 -0.418305 0.124792 0.899693 150 149 154
-2.03966 -1.10015 -5.34983 -0.418305 0.124792 0.899693 130 130 135
-2.00219 -1.11772 -5.359 -0.102292 -0.107597 0.988918 131 131 138
-1.31529 -1.03338 -4.14498 -0.0996738 -0.172697 0.979919 127 96 192
-1.26465 -1.0123 -4.15978 -0.0963903 -0.466407 0.879303 91 60 156
-1.22183 -1.0107 -4.09746 -0.382702 -0.611933 0.692154 118 86 186
-1.22154 -1.01118 -4.09581 -0.321008 -0.628576 0.708411 118 86 186
-1.22181 -1.01069 -4.09707 -0.382192 -0.612381 0.692039 118 86 186
-1.22181 -1.01069 -4.09707 -0.382192 -0.612381 0.692039 118 86 186
-1.03319 -1.00763 -3.8262 -0.631263 -0.242987 0.736522 212 201 228
-0.988627 -0.9958 -3.74478 0.186759 0.373256 0.908736 171 158 223
-0.988839 -0.995898 -3.75233 -0.0754645 0.37466 0.924086 169 157 224
-0.956433 -0.995799 -3.7514 0.186759 0.373256 0.908736 170 142 232
-0.77249 -1.00735 -3.69573 -0.171664 0.0920409 0.980847 152 119 197
-0.695836 -0.982796 -3.66022 -0.088789 0.319235 0.943507 224 212 134
-0.663184 -0.985809 -3.66527 -0.128042 0.130767 0.98311 201 203 120
-0.653651 -1.00687 -3.67514 0.148514 0.215653 0.96511 214 208 129
-0.623162 -1.00335 -3.66671 -0.0804227 -0.0733065 0.994062 187 194 131
-0.592511 -1.0034 -3.6594 -0.0318011 -0.0488858 0.998298 161 180 124
-0.562653 -1.00339 -3.65754 0.0134549 0.163006 0.986533 154 180 120
-0.532643 -1.00353 -3.66551 0.0125651 0.16449 0.986299 167 198 133
1.62593 -1.17164 -5.72462 -0.00673923 -0.246724 0.969062 106 101 106
3.99217 -1.19263 -5.9206 -0.00757839 -0.307471 0.951527 142 126 85
-3.43847 -1.13297 -5.24263 -0.0533762 0.1916 0.980021 190 197 145
-2.50614 -1.1413 -5.30037 0.13862 0.389951 0.910342 166 156 162
-2.35603 -1.14953 -5.32064 0.224134 0.296628 0.928319 161 156 160
-2.31831 -1.14407 -5.32208 0.403752 0.377385 0.833405 202 198 202
-2.28513 -1.14961 -5.33773 0.224133 0.296626 0.92832 222 220 223
-2.24544 -1.14835 -5.33388 0.255951 0.213982 0.942709 221 219 223
-2.2089 -1.14286 -5.31792 -0.173642 0.0538308 0.983336 232 230 234
-2.17628 -1.15084 -5.34766 0.0656554 0.670911 0.738625 238 237 240
-2.09938 -1.13148 -5.36431 -0.418275 0.124838 0.899701 219 219 222
-2.06121 -1.1394 -5.35847 -0.417555 0.124912 0.900025 160 161 164
-2.02228 -1.13676 -5.33667 -0.418305 0.124792 0.899693 127 126 131
-1.98506 -1.15767 -5.35077 -0.340314 0.207273 0.917183 125 126 131
-1.24246 -1.0431 -4.16733 -0.120269 -0.480116 0.868921 105 74 179
-1.20144 -1.0431 -4.16166 -0.12027 -0.480116 0.868921 140 113 198
-1.00733 -1.0231 -3.79685 -0.612736 -0.295337 0.733028 207 198 228
-0.938642 -1.02145 -3.74224 -0.239762 0.485402 0.840773 168 140 230
-0.938079 -1.022 -3.73654 0.19462 0.371907 0.907639 168 140 229
-0.682351 -1.00957 -3.67408 0.0528933 0.0703448 0.996119 223 204 150
-0.638507 -1.03022 -3.66993 -0.0804227 -0.0733066 0.994062 218 201 138
-0.607074 -1.02918 -3.66939 0.0199639 0.189148 0.981746 198 197 128
-0.575311 -1.02796 -3.6484 -0.0577728 -0.55208 0.831787 167 183 119
-0.577399 -1.02894 -3.65911 -0.0196839 -0.000175495 0.999806 174 188 122
-0.580406 -1.032 -3.66157 -0.147926 -0.095866 0.984341 179 191 124
-0.544856 -1.02841 -3.66217 -0.219212 0.163343 0.961907 158 185 118
-0.5475 -1.02901 -3.66106 0.0125644 0.164491 0.986299 157 184 117
-0.503144 -1.03069 -3.67529 -0.468496 0.487727 0.736637 160 191 117
-0.473178 -1.03135 -3.66427 -0.467817 0.429187 0.772622 175 197 130
-0.285522 -1.02273 -3.6256 -0.15535 -0.0211618 0.987633 138 101 184
-2.52193 -1.16971 -5.2858 0.13862 0.389951 0.910342 156 148 152
-2.33616 -1.18008 -5.3165 0.224134 0.296603 0.928327 180 176 179
-2.30058 -1.17902 -5.32356 0.224131 0.296578 0.928335 211 209 212
-2.26264 -1.17884 -5.32807 0.031126 0.282935 0.958634 209 208 210
-2.22785 -1.17559 -5.31948 -0.173642 0.05383 0.983337 217 217 219
-2.19395 -1.18016 -5.33865 0.107926 0.417831 0.902092 232 233 234
-2.15608 -1.17989 -5.33474 -0.0248736 0.279581 0.9598 234 236 236
-2.12075 -1.16819 -5.36899 -0.416339 0.120202 0.901229 229 231 232
-2.11324 -1.18909 -5.34027 0.140891 0.542794 0.827964 231 234 233
-2.08245 -1.17529 -5.36206 0.0243613 0.626633 0.778934 224 226 227
-2.0438 -1.17607 -5.3453 -0.417555 0.124912 0.900025 165 167 168
-2.00531 -1.17869 -5.33178 -0.417188 0.12655 0.899966 131 130 134
-1.29004 -1.07841 -4.18909 -0.0282243 -0.63826 0.769303 111 80 185
-1.2631 -1.08791 -4.18581 -0.200377 -0.641316 0.74065 101 71 176
-1.21862 -1.07405 -4.16178 -0.200377 -0.641317 0.74065 116 88 194
-1.17866 -1.07443 -4.17581 -0.120269 -0.480116 0.868921 174 145 203
-0.988215 -1.0628 -3.79749 -0.611609 -0.296112 0.733657 247 234 217
-0.622739 -1.05732 -3.66944 0.149389 0.216666 0.964748 202 177 152
-0.593645 -1.05732 -3.67395 0.149387 0.216668 0.964748 204 196 139
-0.592012 -1.05463 -3.66479 0.0199623 0.189149 0.981746 205 196 140
-0.562087 -1.05463 -3.6654 0.0199639 0.189148 0.981746 186 193 129
-0.560562 -1.05599 -3.66382 -0.21913 0.165818 0.961502 187 194 130
-0.560811 -1.05468 -3.66134 -0.219213 0.163345 0.961906 186 193 130
-0.53095 -1.05461 -3.6516 -0.574821 -0.373875 0.727873 170 189 120
-0.49687 -1.05186 -3.65016 -0.453151 0.418894 0.786881 191 204 134
-0.300106 -1.06121 -3.65512 -0.0932388 -0.270256 0.958263 131 89 173
3.18921 -1.24433 -5.77729 -0.00996315 0.230199 0.973093 112 102 88
3.62335 -1.25712 -5.86719 0.0999261 0.590437 0.800874 162 146 93
-2.28069 -1.20963 -5.31936 0.0958493 0.26943 0.958238 188 187 189
-2.2094 -1.20782 -5.31577 0.0565187 0.258736 0.964293 221 223 223
-2.24468 -1.20822 -5.31999 0.0311261 0.282936 0.958634 204 205 206
-2.21025 -1.20843 -5.3236 0.107928 0.41783 0.902092 222 224 224
-2.17388 -1.20919 -5.32403 -0.0306009 0.358199 0.933144 228 232 230
-2.1386 -1.20919 -5.3228 -0.0306011 0.358199 0.933144 222 227 224
-2.08258 -1.20655 -5.34091 0.0866743 0.50573 0.858327 225 229 226
-2.05037 -1.22358 -5.32947 0.0866994 0.505719 0.858331 210 215 212
-1.98808 -1.21492 -5.31811 -0.20926 0.131063 0.969037 122 126 126
-0.918303 -1.0778 -3.74872 -0.448911 -0.347748 0.823135 150 133 213
-0.607185 -1.08244 -3.67456 -0.553058 0.0503354 0.831621 171 141 161
-0.576793 -1.08093 -3.66125 -0.219638 0.166435 0.96128 190 169 163
-0.546804 -1.08093 -3.6544 -0.219637 0.166435 0.96128 195 182 166
-0.433291 -1.07816 -3.60043 -0.618253 0.290176 0.730453 137 99 179
-0.410215 -1.07351 -3.60394 -0.607081 0.00058848 0.794639 136 97 183
-0.255161 -1.07521 -3.64456 0.223001 -0.257323 0.940242 113 77 157
2.46968 -1.28459 -5.7742 -0.253238 0.0431259 0.966442 109 101 100
3.91801 -1.29754 -5.87104 -0.425212 0.161074 0.890646 193 171 128
-2.47347 -1.24677 -5.28738 -0.0542654 0.399713 0.915033 151 140 143
-2.25853 -1.24018 -5.30217 0.0569209 0.254957 0.965276 165 166 164
-2.22671 -1.23762 -5.31188 0.0311257 0.282935 0.958634 203 207 204
-2.19174 -1.2377 -5.31275 -0.0305952 0.358192 0.933146 211 216 213
-2.15659 -1.23773 -5.31244 -0.0306011 0.358199 0.933144 187 191 193
-2.12216 -1.23797 -5.31768 0.109016 0.435865 0.893385 173 178 173
-2.08258 -1.23815 -5.32229 0.0866747 0.50573 0.858327 197 202 197
-2.05111 -1.25527 -5.30481 -0.013373 0.564929 0.825031 158 164 159
-2.01872 -1.24078 -5.32253 0.0866997 0.505718 0.858331 167 170 169
-0.969185 -1.10294 -3.80837 -0.609801 -0.300454 0.733396 240 223 206
-0.933868 -1.11033 -3.77929 -0.609737 -0.300645 0.733371 188 189 228
-0.458093 -1.11506 -3.63804 -0.531979 -0.371909 0.760711 136 97 183
-0.374554 -1.10556 -3.61994 -0.612745 -0.2558 0.747736 132 93 179
-0.338922 -1.11628 -3.65945 -0.284434 -0.467995 0.836707 121 82 166
0.358581 -1.15109 -4.03852 0.116087 0.410064 0.904639 76 33 61
3.13053 -1.31943 -5.78855 0.422239 0.523992 0.739694 108 93 80
3.61559 -1.32104 -5.87283 0.335266 0.604326 0.722763 159 146 88
-3.67079 -1.26601 -5.19133 -0.453635 0.32384 0.830267 143 129 120
-3.58079 -1.27123 -5.15958 -0.0755461 0.184741 0.979879 152 139 132
-2.13993 -1.26645 -5.30553 -0.0248416 0.359633 0.932763 123 129 128
-2.12551 -1.2843 -5.29305 -0.141808 0.521437 0.841424 119 128 117
-2.08258 -1.26977 -5.30367 0.0866749 0.50573 0.858327 122 129 120
-2.05308 -1.28734 -5.30209 0.0872117 0.504569 0.858955 115 123 114
-2.02163 -1.27302 -5.31369 0.0872118 0.504569 0.858955 155 164 156
-2.02108 -1.27073 -5.30798 -0.280874 -0.0424436 0.958806 156 165 156
-0.550725 -1.13455 -3.64821 -0.461004 0.379206 0.802296 144 108 198
-0.44931 -1.11907 -3.62463 -0.703702 -0.134749 0.697601 138 101 185
3.46153 -1.34811 -5.77962 -0.0600759 0.414484 0.908071 160 152 92
-2.16971 -1.32203 -5.27064 0.200111 0.384929 0.900991 109 119 107
-2.15322 -1.30017 -5.30773 0.20796 0.379273 0.901612 115 124 113
-2.13244 -1.32743 -5.29693 0.307524 0.258502 0.915754 109 121 104
-2.08427 -1.30159 -5.28975 0.115743 0.557563 0.822026 111 121 108
-2.05267 -1.31886 -5.28249 0.11575 0.557563 0.822025 108 121 103
-2.00068 -1.31918 -5.31472 0.228303 0.108211 0.967558 121 133 119
-1.96615 -1.31925 -5.3031 0.269472 0.284604 0.919992 176 185 175
-1.96513 -1.31904 -5.32009 0.228303 0.108217 0.967557 182 192 182
-1.92988 -1.32079 -5.31803 0.267944 0.285 0.920316 156 163 158
-1.89276 -1.3203 -5.31812 0.28706 0.166817 0.943276 133 136 138
-0.476753 -1.17087 -3.64547 -0.271357 0.249533 0.929569 134 98 188
1.36918 -1.34562 -5.52346 0.427584 0.703422 0.567776 102 97 104
1.48833 -1.35955 -5.64815 -0.161939 0.00192955 0.986799 113 107 111
1.6606 -1.35592 -5.60506 -0.697099 -0.271415 0.663617 113 106 107
-3.33102 -1.32469 -5.17721 -0.167046 0.197756 0.965913 154 141 136
-3.29734 -1.33413 -5.18331 -0.249812 0.0770887 0.965221 152 142 139
-2.18351 -1.35883 -5.27613 0.20796 0.379273 0.901612 103 114 98
-2.1475 -1.35872 -5.28304 0.307524 0.258502 0.915754 103 117 97
-2.09417 -1.33459 -5.29596 0.226038 0.660732 0.715779 108 122 103
-2.05267 -1.34927 -5.26186 0.115786 0.557563 0.82202 102 117 97
-2.01898 -1.34995 -5.29998 -0.0461492 0.278213 0.95941 104 119 99
-1.98173 -1.34995 -5.29819 -0.0461492 0.278213 0.95941 110 123 107
-1.94562 -1.35029 -5.29951 0.269472 0.284604 0.919992 162 172 161
-1.91003 -1.34913 -5.30672 0.16255 0.395822 0.903826 186 191 187
-1.87304 -1.35392 -5.32475 0.421318 0.535294 0.732087 152 157 158
-1.80712 -1.34367 -5.27263 0.209501 0.0967209 0.973013 133 136 144
1.24902 -1.40769 -5.66699 0.0745849 -0.0483264 0.996043 100 94 98
2.27593 -1.4055 -5.71237 0.29175 -0.0111786 0.956429 76 71 77
2.56902 -1.41945 -5.75853 0.0212246 0.00752018 0.999746 106 95 94
-3.31683 -1.36749 -5.17896 0.243826 0.303995 0.920943 157 146 144
-2.12857 -1.38383 -5.26573 0.306957 0.257476 0.916233 97 112 90
-2.09404 -1.38347 -5.27632 0.306967 0.257447 0.916238 96 113 90
-2.03605 -1.38012 -5.2759 0.146953 0.298164 0.943135 99 118 94
-2.00079 -1.38097 -5.29011 -0.0461497 0.278213 0.95941 101 118 97
-1.96354 -1.38097 -5.28832 -0.0461492 0.278213 0.95941 108 122 106
-1.92635 -1.38097 -5.28653 -0.046149 0.278213 0.95941 168 178 166
-1.88893 -1.38198 -5.28759 -0.0459413 0.278606 0.959306 217 223 219
-1.82165 -1.37344 -5.24295 0.695447 0.196863 0.691085 166 170 175
-1.78892 -1.37464 -5.27347 0.209502 0.0967208 0.973013 135 137 146
-0.479815 -1.23131 -3.70626 0.316663 0.0700484 0.945948 126 90 182
3.25462 -1.46053 -5.75038 -0.606855 0.2706 0.747331 115 99 80
3.46585 -1.45887 -5.79012 -0.0578011 -0.242173 0.96851 151 148 88
-3.01739 -1.4158 -5.18672 -0.0422986 0.778344 0.626412 148 139 142
-2.14206 -1.42118 -5.27107 0.521428 0.131668 0.843076 97 113 90
-2.10775 -1.41926 -5.27736 0.312612 0.259108 0.913858 93 110 86
-2.01725 -1.4103 -5.27384 0.147567 0.297523 0.943241 100 119 95
-1.98421 -1.42752 -5.30017 -0.0581102 0.453221 0.889502 107 124 102
-1.94654 -1.42062 -5.28771 -0.0620454 0.456478 0.887569 107 122 103
-1.90933 -1.42062 -5.28511 -0.0620455 0.456478 0.887569 182 191 183
-1.84094 -1.40559 -5.25919 0.209502 0.0967208 0.973013 222 225 228
-1.87305 -1.42705 -5.28431 -0.0581022 0.453242 0.889492 223 227 226
-1.80584 -1.40559 -5.26675 0.209503 0.0967201 0.973013 189 192 199
-1.77036 -1.40691 -5.29513 0.181595 0.195268 0.963791 135 137 147
-1.73426 -1.40659 -5.29643 0.181493 0.195588 0.963746 123 127 138
1.78526 -1.47206 -5.63134 0.0534937 0.272616 0.960635 112 106 110
-3.00168 -1.45035 -5.19198 -0.4077 0.476958 0.778648 155 143 148
-2.10009 -1.46476 -5.27852 0.0894824 0.258972 0.961731 91 108 83
-1.89263 -1.45587 -5.27086 -0.0581031 0.453241 0.889492 205 209 214
-1.82458 -1.43833 -5.2845 0.27366 0.211917 0.938191 220 222 229
-1.78708 -1.4377 -5.2865 0.181595 0.195333 0.963778 196 198 207
-1.75151 -1.4377 -5.29321 0.181595 0.195334 0.963778 140 144 154
-1.72402 -1.46474 -5.28103 -0.114716 0.246902 0.962226 164 169 181
-1.69455 -1.43382 -5.23772 0.0298726 0.197358 0.979876 121 127 139
-1.6597 -1.43465 -5.25365 0.0478599 0.219504 0.974437 116 123 137
-1.62368 -1.43465 -5.25543 0.0478596 0.219505 0.974437 109 118 134
-1.60845 -1.46614 -5.25896 0.0477347 0.219775 0.974382 109 118 135
3.89083 -1.53926 -5.79599 0.389187 0.678037 0.623538 180 114 34
-2.14512 -1.46723 -5.22311 0.242184 0.53652 0.808389 93 108 84
-1.87806 -1.48428 -5.26523 -0.0725699 0.293188 0.953296 212 216 217
-1.84044 -1.46899 -5.27279 0.168508 0.0541886 0.98421 220 222 228
-1.80444 -1.46882 -5.27921 0.21236 0.208419 0.954707 193 195 203
-1.78528 -1.49961 -5.27675 0.21236 0.208419 0.954707 188 191 201
-1.74755 -1.49883 -5.2779 -0.102265 0.331593 0.937864 204 209 220
-1.70016 -1.49612 -5.26455 -0.125411 -0.0186183 0.99193 204 210 224
-1.66585 -1.49916 -5.28527 0.0834432 0.27269 0.958477 171 178 194
-1.67631 -1.46447 -5.2321 0.0298734 0.197358 0.979876 143 150 165
-1.64446 -1.46615 -5.25722 0.0477373 0.219814 0.974373 112 120 136
-1.62612 -1.49662 -5.25125 0.0477372 0.219814 0.974373 133 142 158
-1.59013 -1.49657 -5.25299 0.047733 0.219752 0.974387 103 113 131
-1.55336 -1.50148 -5.26943 0.174494 0.481514 0.858893 115 120 150
-0.524881 -1.31032 -3.70077 -0.484679 -0.28919 0.825503 111 80 183
2.00394 -1.5556 -5.6693 -0.306356 -0.274641 0.911437 80 72 77
3.38132 -1.55422 -5.74294 0.289882 0.214523 0.93271 157 151 96
-2.8582 -1.51121 -5.15667 -0.278063 0.0967878 0.955674 162 153 159
-1.82381 -1.51382 -5.25199 -0.0725699 0.293189 0.953296 173 175 183
-1.78835 -1.52567 -5.24606 -0.0353463 -0.085502 0.995711 211 215 224
-1.71904 -1.52921 -5.26756 -0.12541 -0.0186123 0.99193 178 183 197
-1.68322 -1.52947 -5.27513 0.0834415 0.272691 0.958477 172 175 197
-1.64659 -1.52914 -5.27398 0.0845912 0.272932 0.958307 186 187 215
-1.60897 -1.52803 -5.26068 0.079822 0.273495 0.958556 159 157 191
-1.56867 -1.53003 -5.25031 0.174494 0.481514 0.858893 117 125 149
-1.57032 -1.52677 -5.24557 -0.273616 0.507713 0.816922 116 124 147
-1.53349 -1.53038 -5.24963 -0.135079 0.49161 0.860275 115 115 153
-2.97943 -1.52585 -5.20178 0.335931 -0.577821 0.743823 154 143 147
-1.77289 -1.55972 -5.25675 0.0842107 0.27318 0.95827 213 218 227
-1.73656 -1.55962 -5.25948 0.0849136 0.273159 0.958214 169 173 186
-1.70038 -1.55962 -5.26269 0.0849144 0.273159 0.958214 111 117 132
-1.66457 -1.55996 -5.27073 0.0845987 0.272923 0.958309 133 139 158
-1.62828 -1.55996 -5.27393 0.0845988 0.272923 0.958309 189 194 219
-1.59009 -1.55829 -5.25347 -0.136148 0.491308 0.860279 183 185 215
-1.55366 -1.55754 -5.23727 -0.13508 0.49161 0.860275 148 154 182
-1.51699 -1.55562 -5.25066 -0.132626 0.495456 0.858448 117 115 158
2.57511 -1.61952 -5.74428 -0.205045 0.565838 0.798614 77 69 71
3.28145 -1.64158 -5.74589 0.18125 0.179778 0.966865 171 156 132
3.31576 -1.63967 -5.73836 0.108566 0.213219 0.970954 155 143 111
3.38689 -1.62963 -5.73455 -0.0329554 0.214122 0.976251 157 149 102
3.86256 -1.63911 -5.78635 0.148129 0.358466 0.921716 168 104 33
-1.7539 -1.58988 -5.24932 0.0849139 0.273159 0.958214 200 205 215
-1.72031 -1.59085 -5.26036 0.0858982 0.270833 0.958786 179 183 196
-1.6815 -1.58992 -5.25572 0.084915 0.273158 0.958214 115 122 137
-1.64528 -1.58992 -5.25893 0.0849148 0.273157 0.958214 141 150 166
-1.57383 -1.58471 -5.22492 -0.135079 0.49161 0.860275 191 198 222
-1.53958 -1.58598 -5.23662 -0.132626 0.495456 0.858448 161 164 198
-1.41962 -1.5683 -5.20579 -0.617431 -0.00436373 0.786613 104 106 146
-0.645639 -1.43643 -3.96689 -0.613624 0.244378 0.750829 126 92 189
-0.245408 -1.41918 -3.78804 -0.398872 0.660147 0.63648 122 65 133
1.65788 -1.64546 -5.60656 -0.602939 0.246058 0.758894 116 110 115
3.38239 -1.67631 -5.74912 0.252629 0.383475 0.888327 153 141 105
-1.73987 -1.61589 -5.24575 -0.0857902 0.226416 0.970245 184 188 199
-1.69886 -1.62022 -5.24555 0.0849148 0.273157 0.958214 200 206 219
-1.66263 -1.62022 -5.24876 0.0849148 0.273157 0.958214 174 181 196
-1.5963 -1.60844 -5.24847 -0.201336 0.0730644 0.976793 191 201 220
-0.396575 -1.45943 -3.88533 0.0519029 0.192331 0.979957 127 99 191
3.29735 -1.67911 -5.72895 -0.100841 0.293347 0.950673 181 165 141
3.33518 -1.67897 -5.72826 -0.00576063 0.32654 0.945166 174 160 132
3.44919 -1.6874 -5.72895 -0.0619441 0.153747 0.986167 154 146 106
-2.8183 -1.61933 -5.12864 0.186306 0.086913 0.97864 154 147 152
-1.71946 -1.64588 -5.249 -0.0776238 0.403935 0.911488 167 172 183
-1.67996 -1.65048 -5.2386 0.0849147 0.273156 0.958215 196 202 215
-1.64378 -1.65048 -5.2418 0.0849147 0.273156 0.958215 209 217 232
-1.61409 -1.64017 -5.25247 0.202901 0.0997919 0.974101 205 214 230
-1.5713 -1.64103 -5.25365 -0.0273838 0.232066 0.972314 127 134 157
-0.682038 -1.50268 -4.0294 -0.679377 -0.0401674 0.732689 109 78 177
-0.628653 -1.49962 -3.9797 -0.679377 -0.0401677 0.732689 114 81 186
-0.615908 -1.49203 -3.95783 -0.24444 0.262131 0.933561 114 81 182
-0.353152 -1.4786 -3.79975 -0.397533 0.543992 0.738945 133 105 194
-0.328184 -1.45505 -3.79664 -0.402024 0.658268 0.636443 121 91 178
-0.276937 -1.45745 -3.7456 -0.652745 0.319889 0.686728 139 101 176
3.21688 -1.73691 -5.70362 0.0404001 0.2966 0.954147 177 159 143
3.23463 -1.71019 -5.71297 0.0403919 0.186074 0.981705 151 134 116
3.27491 -1.71019 -5.71463 0.0403934 0.186075 0.981705 135 119 98
3.35451 -1.71073 -5.71717 -0.0057606 0.32654 0.945166 182 167 141
3.39865 -1.71276 -5.73277 0.214734 0.234785 0.948032 161 148 118
-3.01805 -1.65013 -5.09245 -0.0325366 0.37964 0.924562 149 141 143
-2.8955 -1.68565 -5.13212 -0.458718 0.169971 0.872174 156 147 152
-2.3562 -1.66073 -5.168 -0.326869 0.607117 0.724269 110 129 116
-1.73821 -1.67463 -5.23218 0.0367824 0.262994 0.964096 212 215 228
-1.69965 -1.67539 -5.23647 0.0687245 0.200631 0.977254 171 176 189
-1.70254 -1.67488 -5.23686 -0.0783921 0.404065 0.911365 173 178 190
-1.66392 -1.67401 -5.23706 0.068688 0.200546 0.977273 176 182 197
-1.63099 -1.67113 -5.24594 0.202908 0.0997876 0.9741 203 211 226
-1.61085 -1.70292 -5.24702 0.242649 0.276421 0.929899 173 181 197
-1.60789 -1.70202 -5.24011 -0.0273823 0.232086 0.97231 171 180 195
-1.5896 -1.67153 -5.24689 -0.0273824 0.232086 0.97231 141 150 167
-1.57171 -1.70203 -5.23913 -0.0273816 0.232089 0.972309 156 163 183
-0.714766 -1.51647 -4.03551 -0.692665 -0.0907792 0.715524 121 87 188
-0.654033 -1.52219 -4.00449 -0.679377 -0.040168 0.732689 114 82 181
-0.382633 -1.49614 -3.78853 -0.402024 0.658268 0.636443 125 94 192
-0.354227 -1.50081 -3.77157 -0.398873 0.660147 0.63648 136 110 196
-0.327053 -1.48042 -3.77568 -0.398873 0.660147 0.63648 171 151 212
-0.29614 -1.48903 -3.76708 -0.571654 0.585106 0.575207 200 187 225
2.98383 -1.76699 -5.69565 -0.380977 -0.270609 0.884097 113 96 87
3.23685 -1.77013 -5.69488 0.101934 0.201788 0.97411 171 152 136
3.25453 -1.74382 -5.70589 0.143319 0.325056 0.934772 169 151 134
3.27789 -1.77013 -5.69917 0.10194 0.201795 0.974108 174 155 138
3.29538 -1.74459 -5.70895 0.0403939 0.186076 0.981705 139 122 102
3.33467 -1.74296 -5.70724 0.0400778 0.186806 0.981579 141 125 103
3.37758 -1.74731 -5.71605 0.216571 0.234076 0.94779 176 160 137
3.42014 -1.74731 -5.72578 0.21657 0.234076 0.94779 178 164 137
-2.93045 -1.685 -5.11737 -0.103826 0.0275319 0.994214 157 147 151
-1.7166 -1.71002 -5.23536 0.169925 0.414141 0.894211 212 217 229
-1.68135 -1.70578 -5.23152 0.0687214 0.200627 0.977254 191 197 212
-1.66082 -1.73281 -5.2251 0.24265 0.276422 0.929899 203 208 224
-1.62618 -1.73249 -5.23336 -0.0273829 0.232076 0.972312 177 183 200
-1.64562 -1.70292 -5.23795 0.24265 0.276421 0.929899 153 160 177
-1.58785 -1.73118 -5.22779 0.348862 0.324879 0.879061 145 154 170
-0.626168 -1.54159 -3.97971 -0.679377 -0.040168 0.732689 129 97 199
-0.388635 -1.52636 -3.76662 -0.398873 0.660146 0.63648 125 95 189
-0.327053 -1.50417 -3.75105 -0.398873 0.660147 0.63648 207 200 231
-0.286625 -1.51732 -3.7454 -0.391663 0.686433 0.612707 234 241 242
-0.247625 -1.52617 -3.73088 -0.394425 0.680013 0.618071 157 162 183
0.877875 -1.74036 -5.4346 0.234627 0.611494 0.755662 117 114 121
2.90485 -1.76008 -5.60372 -0.148149 -0.602911 0.783932 101 84 75
2.90485 -1.76008 -5.60372 -0.148149 -0.602911 0.783932 101 84 75
3.19615 -1.77047 -5.69126 0.102781 0.201674 0.974045 137 118 103
3.27443 -1.77451 -5.69155 0.140559 0.324977 0.935218 176 157 140
3.31489 -1.77773 -5.70044 0.112652 0.260807 0.958796 159 140 122
3.40084 -1.78407 -5.71229 0.216571 0.234076 0.94779 158 142 120
3.46293 -1.78859 -5.72244 -0.0216318 0.225917 0.973906 181 165 141
-2.70371 -1.74545 -5.13091 -0.371451 -0.207252 0.905026 234 232 236
-1.73088 -1.73769 -5.21507 0.222602 0.276071 0.935005 193 197 209
-1.69586 -1.7393 -5.22571 0.16993 0.414145 0.894208 203 207 221
-1.67635 -1.76791 -5.21967 0.222651 0.276065 0.934995 161 164 179
-1.64137 -1.76791 -5.228 0.222651 0.276064 0.934995 210 215 230
-1.60642 -1.76409 -5.23111 0.0997757 -0.0967726 0.990293 208 214 232
-1.56938 -1.76409 -5.23485 0.0997756 -0.0967722 0.990293 161 170 187
-1.5324 -1.7641 -5.23857 0.0997756 -0.096772 0.990293 165 176 194
-1.49499 -1.76535 -5.23357 0.369566 0.276387 0.887148 181 189 214
-1.28368 -1.75453 -5.26392 -0.0848666 0.3859 0.918629 166 180 211
-1.21911 -1.75014 -5.23622 0.0199502 -0.125817 0.991853 106 120 150
-0.679573 -1.58247 -4.01433 -0.663271 0.32176 0.675679 142 111 217
-0.598443 -1.5609 -3.95506 -0.679378 -0.0401682 0.732689 135 105 208
-0.508253 -1.57024 -3.8741 -0.441366 -0.12809 0.888138 143 116 210
-0.453887 -1.5679 -3.87988 -0.388175 -0.168036 0.906137 134 107 201
-0.361171 -1.52977 -3.74588 -0.398873 0.660147 0.63648 129 101 191
-0.309962 -1.55318 -3.77715 -0.665941 -0.0121068 0.745906 168 153 203
-0.211412 -1.54532 -3.68346 -0.631457 -0.206357 0.747448 162 161 191
3.17642 -1.80585 -5.68011 0.154022 0.208594 0.965798 162 143 128
3.21564 -1.80331 -5.68181 0.102148 0.202687 0.973901 133 113 97
3.25712 -1.80376 -5.68705 0.102201 0.202475 0.97394 156 136 121
3.2965 -1.80822 -5.68328 0.140486 0.324928 0.935246 179 159 143
3.33641 -1.81213 -5.69361 0.112651 0.260805 0.958796 174 154 137
3.37739 -1.81213 -5.69843 0.11265 0.260804 0.958797 143 125 106
3.44281 -1.82226 -5.71507 -0.0216317 0.225917 0.973906 155 137 117
3.98872 -1.83624 -5.70929 -0.578802 -0.00238499 0.815464 96 94 56
-3.1313 -1.77992 -5.0943 -0.0681794 0.345569 0.935913 147 136 137
-1.74637 -1.76786 -5.20293 0.222652 0.276063 0.934995 169 171 183
-1.72709 -1.79932 -5.20126 -0.476335 -0.311873 0.822095 182 182 194
-1.71135 -1.7679 -5.21133 0.222651 0.276065 0.934995 154 157 170
-1.65686 -1.79588 -5.21281 0.22268 0.276069 0.934986 178 182 196
-1.6219 -1.79301 -5.21726 0.339309 0.277906 0.898687 212 217 232
-1.5889 -1.79395 -5.23055 -0.245529 -0.0789827 0.966166 213 219 237
-1.54984 -1.79395 -5.22062 -0.245529 -0.0789825 0.966166 183 191 209
-1.5512 -1.79614 -5.23981 0.0997755 -0.0967721 0.990293 178 185 204
-1.47516 -1.79517 -5.23254 0.369566 0.276387 0.887148 167 177 199
-1.44442 -1.78845 -5.2296 0.155567 0.715167 0.681421 133 142 170
-1.26611 -1.78458 -5.24967 -0.0848665 0.385901 0.918629 183 201 225
-1.20078 -1.78285 -5.25432 0.22895 0.201857 0.952279 141 158 183
-1.16291 -1.77702 -5.19988 0.381417 -0.153713 0.911534 115 121 162
-0.527264 -1.6015 -3.89803 -0.52089 -0.196115 0.83079 148 122 214
-0.4982 -1.60151 -3.85898 -0.489701 -0.319759 0.81114 134 107 206
-0.378556 -1.56826 -3.79073 -0.338439 0.622103 0.706008 132 102 195
-0.346503 -1.57539 -3.76907 -0.338439 0.622103 0.706008 132 104 192
-0.285183 -1.57122 -3.75246 -0.666099 -0.0113056 0.745777 205 202 231
-0.232263 -1.57432 -3.7162 -0.567217 -0.13085 0.813107 102 108 125
-0.179715 -1.55596 -3.65742 -0.625197 -0.252749 0.738408 174 161 206
2.05185 -1.84781 -5.56357 0.227965 0.083413 0.97009 125 113 111
3.15579 -1.83372 -5.66934 0.154062 0.208822 0.965742 171 152 136
3.16721 -1.85338 -5.66592 0.0665197 0.24685 0.966768 163 144 128
3.20609 -1.85166 -5.66625 0.0665445 0.246663 0.966814 181 161 145
3.2373 -1.83886 -5.67767 0.102204 0.202478 0.973939 150 130 113
3.27847 -1.83886 -5.682 0.102208 0.202485 0.973937 141 121 105
3.27729 -1.83724 -5.67872 0.100425 0.203529 0.973905 141 121 105
3.31977 -1.83886 -5.68633 0.10221 0.202488 0.973936 168 148 132
3.31638 -1.84579 -5.68024 0.112561 0.260824 0.958802 155 135 119
3.41507 -1.84462 -5.69343 0.069742 0.37859 0.922933 145 126 108
3.90706 -1.86899 -5.72257 0.0211874 0.168405 0.98549 143 135 85
4.01519 -1.86489 -5.71912 -0.852564 0.18812 0.487592 145 139 87
-3.53319 -1.80485 -5.05693 -0.355809 -0.0569972 0.932819 141 124 120
-3.24311 -1.78349 -5.05994 0.0627871 -0.0231051 0.997759 148 135 135
-3.19184 -1.78501 -5.05669 -0.428023 -0.209773 0.879086 144 130 130
-1.67233 -1.82577 -5.20031 0.22268 0.276069 0.934987 152 156 169
-1.63742 -1.82577 -5.20862 0.222678 0.27607 0.934987 201 206 220
-1.6374 -1.82509 -5.20771 0.222893 0.276159 0.934909 201 206 220
-1.6021 -1.8228 -5.21553 0.339309 0.277906 0.898687 215 221 236
-1.52139 -1.82495 -5.20399 0.369566 0.276388 0.887147 199 207 225
